-0.311162 0.172540 -0.007999 0.500000 0.000000 0.500000
-0.311162 0.032357 0.068843 0.500000 0.000000 0.500000
-0.294250 0.294409 0.015569 0.500000 0.000000 0.500000
-0.195982 -0.108130 0.278232 0.300000 0.600000 0.000000
0.174160 -0.141166 -0.274696 0.500000 0.000000 0.500000
-0.311162 0.041237 0.002806 0.500000 0.000000 0.500000
0.103924 0.270803 0.246882 0.500000 0.000000 0.500000
-0.149067 0.295075 -0.275709 0.500000 0.000000 0.500000
-0.311162 0.005895 0.038195 0.500000 0.000000 0.500000
0.320152 0.051359 0.074330 0.500000 0.000000 0.500000
0.194619 0.295256 0.206982 0.500000 0.000000 0.500000
-0.267276 0.294258 0.046334 0.500000 0.000000 0.500000
0.319625 0.197951 0.135366 0.500000 0.000000 0.500000
-0.031341 -0.229954 -0.274696 0.500000 0.000000 0.500000
0.297156 0.293951 0.244965 0.500000 0.000000 0.500000
-0.326725 0.265706 -0.050845 0.500000 0.000000 0.500000
-0.018130 0.294930 -0.278810 0.500000 0.000000 0.500000
0.078770 0.201008 -0.274696 0.500000 0.000000 0.500000
0.310952 0.294568 -0.003444 0.500000 0.000000 0.500000
-0.311162 0.008517 -0.191086 0.500000 0.000000 0.500000
0.289649 -0.293593 -0.253066 0.500000 0.000000 0.500000
-0.216097 0.294258 0.202897 0.500000 0.000000 0.500000
0.024707 0.075772 -0.274696 0.500000 0.000000 0.500000
-0.250565 -0.216028 -0.611410 0.500000 0.500000 0.000000
-0.015463 -0.293629 -0.042887 0.500000 0.000000 0.500000
0.318683 -0.072369 -0.265092 0.500000 0.000000 0.500000
-0.161510 -0.293629 -0.145113 0.500000 0.000000 0.500000
-0.311162 -0.034868 -0.194212 0.500000 0.000000 0.500000
0.172283 -0.211624 -0.274696 0.500000 0.000000 0.500000
0.209547 0.225784 0.249762 0.300000 0.600000 0.000000
0.293586 0.137309 -0.274694 0.500000 0.000000 0.500000
-0.260570 0.143201 0.285401 0.300000 0.600000 0.000000
-0.285162 -0.231116 0.249768 0.300000 0.600000 0.000000
-0.311162 0.018353 -0.154470 0.500000 0.000000 0.500000
0.102275 -0.293629 -0.042101 0.500000 0.000000 0.500000
-0.311160 -0.084452 0.195216 0.500000 0.000000 0.500000
0.239777 -0.293586 -0.254737 0.500000 0.000000 0.500000
-0.065497 -0.178731 0.277231 0.300000 0.600000 0.000000
0.320152 0.104576 -0.237802 0.500000 0.000000 0.500000
0.015653 0.294695 -0.052304 0.500000 0.000000 0.500000
0.186613 0.294258 -0.099961 0.500000 0.000000 0.500000
0.177330 -0.288473 -0.272760 0.500000 0.000000 0.500000
-0.324029 0.261508 0.211714 0.500000 0.000000 0.500000
-0.298683 0.153294 0.232000 0.500000 0.000000 0.500000
0.076583 0.294258 -0.047132 0.500000 0.000000 0.500000
0.080914 0.294258 -0.085322 0.500000 0.000000 0.500000
-0.310048 0.037508 -0.264382 0.500000 0.000000 0.500000
0.040316 0.153493 0.296719 0.600000 0.000000 0.300000
0.186683 0.263774 0.243518 0.500000 0.000000 0.500000
0.087772 0.295256 0.210474 0.500000 0.000000 0.500000
-0.007827 0.294337 0.066871 0.500000 0.000000 0.500000
-0.230551 -0.042987 0.277800 0.300000 0.600000 0.000000
-0.252867 0.243845 0.236904 0.500000 0.000000 0.500000
0.202232 -0.203492 0.278232 0.300000 0.600000 0.000000
0.192418 -0.293626 0.245801 0.300000 0.600000 0.000000
0.194029 0.294258 0.000435 0.500000 0.000000 0.500000
-0.311162 0.036569 0.151070 0.500000 0.000000 0.500000
-0.279999 -0.078302 0.272456 0.300000 0.600000 0.000000
-0.081145 -0.208805 0.277231 0.300000 0.600000 0.000000
0.320152 -0.015268 -0.065926 0.500000 0.000000 0.500000
0.320152 0.199159 -0.129400 0.500000 0.000000 0.500000
-0.311162 0.069734 -0.167821 0.500000 0.000000 0.500000
0.211938 -0.293629 0.041330 0.500000 0.000000 0.500000
0.319680 0.061610 -0.029473 0.500000 0.000000 0.500000
-0.006192 0.274797 0.248149 0.500000 0.000000 0.500000
-0.038371 -0.293629 -0.184806 0.500000 0.000000 0.500000
-0.311162 -0.178425 -0.210207 0.500000 0.000000 0.500000
-0.327326 0.266648 -0.113607 0.500000 0.000000 0.500000
-0.292232 -0.121263 0.238315 0.500000 0.000000 0.500000
0.003048 0.294621 -0.167894 0.500000 0.000000 0.500000
-0.214687 -0.293629 -0.140860 0.500000 0.000000 0.500000
0.142550 0.294258 0.006397 0.500000 0.000000 0.500000
0.152274 0.295204 0.225802 0.500000 0.000000 0.500000
0.320152 -0.054802 0.187156 0.500000 0.000000 0.500000
-0.063724 0.295256 -0.183917 0.500000 0.000000 0.500000
0.305093 0.058051 0.234248 0.300000 0.600000 0.000000
-0.058118 0.294258 0.035133 0.500000 0.000000 0.500000
0.320152 0.023190 0.106597 0.500000 0.000000 0.500000
0.313904 0.294636 -0.113402 0.500000 0.000000 0.500000
-0.269692 -0.293629 0.152107 0.500000 0.000000 0.500000
0.140333 0.003004 0.278232 0.300000 0.600000 0.000000
-0.236584 0.163609 -0.274696 0.500000 0.000000 0.500000
-0.160708 0.294258 0.015405 0.500000 0.000000 0.500000
0.050324 -0.177753 0.278232 0.300000 0.600000 0.000000
-0.085108 -0.293629 -0.215295 0.500000 0.000000 0.500000
-0.306362 -0.292516 -0.104607 0.500000 0.000000 0.500000
0.069349 -0.135072 0.278232 0.300000 0.600000 0.000000
-0.155975 -0.293629 -0.081655 0.500000 0.000000 0.500000
0.320152 -0.163563 0.143655 0.500000 0.000000 0.500000
-0.119468 0.294258 0.117918 0.500000 0.000000 0.500000
0.322250 0.294838 0.053338 0.500000 0.000000 0.500000
0.075590 0.000964 0.278231 0.300000 0.600000 0.000000
0.319151 -0.252372 -0.109865 0.500000 0.000000 0.500000
0.065406 0.295256 0.063822 0.500000 0.000000 0.500000
0.171545 -0.018026 -0.274696 0.500000 0.000000 0.500000
-0.324054 0.294198 0.208790 0.500000 0.000000 0.500000
0.319601 0.050195 0.002640 0.500000 0.000000 0.500000
0.165065 0.294258 -0.135001 0.500000 0.000000 0.500000
-0.311162 0.124229 -0.145327 0.500000 0.000000 0.500000
0.320152 -0.076615 0.066109 0.500000 0.000000 0.500000
-0.035105 -0.009553 -0.274696 0.500000 0.000000 0.500000
0.018001 -0.293613 -0.249646 0.500000 0.000000 0.500000
0.181485 -0.293629 -0.074342 0.500000 0.000000 0.500000
0.203200 0.294457 -0.256294 0.500000 0.000000 0.500000
0.107786 -0.221790 0.278232 0.300000 0.600000 0.000000
-0.311162 0.178039 0.099283 0.500000 0.000000 0.500000
0.169417 -0.257568 0.278232 0.300000 0.600000 0.000000
-0.274421 -0.173834 -0.277396 0.500000 0.000000 0.500000
0.319151 0.145957 0.013173 0.500000 0.000000 0.500000
0.249553 -0.276360 0.278147 0.300000 0.600000 0.000000
-0.056898 -0.262933 -0.274695 0.500000 0.000000 0.500000
-0.080127 0.273273 -0.293182 0.500000 0.000000 0.500000
-0.261192 -0.293629 -0.054816 0.500000 0.000000 0.500000
-0.311158 -0.265482 0.168612 0.500000 0.000000 0.500000
-0.168744 -0.114521 -0.274696 0.500000 0.000000 0.500000
-0.085347 0.294258 0.007173 0.500000 0.000000 0.500000
-0.277283 -0.293629 -0.209355 0.500000 0.000000 0.500000
-0.285515 0.181984 0.249044 0.300000 0.600000 0.000000
-0.024827 0.295194 -0.134473 0.500000 0.000000 0.500000
0.320152 0.170020 -0.095327 0.500000 0.000000 0.500000
-0.277407 0.000692 -0.274696 0.500000 0.000000 0.500000
-0.250487 -0.215330 -0.544562 0.500000 0.500000 0.000000
0.076956 -0.293629 0.170752 0.500000 0.000000 0.500000
0.016687 -0.172029 0.277815 0.300000 0.600000 0.000000
-0.250066 -0.216943 -0.479845 0.500000 0.500000 0.000000
0.335836 0.292558 -0.280817 0.500000 0.000000 0.500000
0.073135 -0.293629 0.047005 0.500000 0.000000 0.500000
-0.290823 0.120338 0.239705 0.500000 0.000000 0.500000
-0.037832 -0.228120 0.277231 0.300000 0.600000 0.000000
0.126693 0.075665 0.277874 0.300000 0.600000 0.000000
-0.092403 0.295256 -0.195486 0.500000 0.000000 0.500000
0.251911 0.295256 0.214687 0.500000 0.000000 0.500000
0.131976 -0.293629 0.052485 0.500000 0.000000 0.500000
-0.278122 -0.293629 0.072934 0.500000 0.000000 0.500000
-0.310379 0.294625 -0.070531 0.500000 0.000000 0.500000
-0.218188 0.228336 0.250343 0.300000 0.600000 0.000000
-0.175537 -0.215790 -0.274696 0.500000 0.000000 0.500000
0.027226 -0.046898 0.278132 0.300000 0.600000 0.000000
-0.066750 0.011800 -0.274696 0.500000 0.000000 0.500000
-0.215596 0.026540 0.277231 0.300000 0.600000 0.000000
-0.311162 -0.164641 0.024225 0.500000 0.000000 0.500000
0.020853 0.208607 0.287282 0.600000 0.000000 0.300000
0.318421 -0.255089 -0.265982 0.500000 0.000000 0.500000
-0.192036 -0.020310 -0.274696 0.500000 0.000000 0.500000
-0.226487 0.091671 0.277231 0.300000 0.600000 0.000000
-0.311150 0.225714 -0.003142 0.500000 0.000000 0.500000
0.205749 -0.261785 0.278230 0.300000 0.600000 0.000000
-0.247912 -0.215617 -1.059492 0.500000 0.500000 0.000000
0.262098 0.046679 -0.274696 0.500000 0.000000 0.500000
0.137747 -0.156514 -0.274696 0.500000 0.000000 0.500000
-0.171039 0.294258 0.070906 0.500000 0.000000 0.500000
-0.256637 0.031695 0.277567 0.300000 0.600000 0.000000
-0.311162 0.000415 0.159527 0.500000 0.000000 0.500000
-0.311162 -0.022937 0.136104 0.500000 0.000000 0.500000
0.076699 -0.293629 -0.206793 0.500000 0.000000 0.500000
-0.306166 0.087711 0.227511 0.500000 0.000000 0.500000
-0.311162 -0.159159 -0.092414 0.500000 0.000000 0.500000
-0.311162 -0.212449 -0.058421 0.500000 0.000000 0.500000
-0.314038 0.243847 -0.215308 0.500000 0.000000 0.500000
-0.090317 0.294258 0.157620 0.500000 0.000000 0.500000
-0.270297 -0.289108 -0.272401 0.500000 0.000000 0.500000
-0.029185 -0.293629 0.220587 0.500000 0.000000 0.500000
-0.311162 0.205853 -0.113565 0.500000 0.000000 0.500000
-0.290078 0.015212 0.240440 0.500000 0.000000 0.500000
-0.062883 -0.293629 0.061902 0.500000 0.000000 0.500000
0.093795 -0.192687 0.278232 0.300000 0.600000 0.000000
-0.061530 -0.080052 0.278231 0.300000 0.600000 0.000000
-0.130846 0.167335 -0.274696 0.500000 0.000000 0.500000
0.319443 -0.054514 -0.045769 0.500000 0.000000 0.500000
0.154580 0.294471 -0.282391 0.500000 0.000000 0.500000
0.320152 -0.236092 0.156749 0.500000 0.000000 0.500000
0.325516 0.249690 0.077025 0.500000 0.000000 0.500000
-0.125360 0.295112 -0.142829 0.500000 0.000000 0.500000
-0.149323 -0.242847 0.277231 0.300000 0.600000 0.000000
-0.311162 -0.029567 -0.241404 0.500000 0.000000 0.500000
-0.329443 0.271535 -0.017453 0.500000 0.000000 0.500000
0.024176 -0.293629 0.050397 0.500000 0.000000 0.500000
-0.128490 -0.174822 0.277520 0.300000 0.600000 0.000000
0.236337 0.294394 0.121363 0.500000 0.000000 0.500000
0.058938 0.116358 -0.274696 0.500000 0.000000 0.500000
0.062597 0.226303 -0.274693 0.500000 0.000000 0.500000
-0.118073 -0.293629 0.224848 0.500000 0.000000 0.500000
-0.273748 0.078075 -0.274696 0.500000 0.000000 0.500000
0.230355 0.007318 -0.274696 0.500000 0.000000 0.500000
-0.247832 -0.216441 -0.927992 0.500000 0.500000 0.000000
-0.188909 0.295256 -0.226188 0.500000 0.000000 0.500000
-0.044582 -0.199560 -0.274696 0.500000 0.000000 0.500000
-0.002339 0.294450 0.005900 0.500000 0.000000 0.500000
-0.081404 -0.293629 0.198685 0.500000 0.000000 0.500000
0.320152 0.083294 -0.081757 0.500000 0.000000 0.500000
-0.013909 0.066930 -0.274696 0.500000 0.000000 0.500000
-0.160137 -0.293544 0.266994 0.300000 0.600000 0.000000
0.320152 -0.035001 -0.230357 0.500000 0.000000 0.500000
-0.260874 0.294258 -0.123564 0.500000 0.000000 0.500000
-0.127995 -0.293629 0.060088 0.500000 0.000000 0.500000
-0.116337 -0.202015 -0.274696 0.500000 0.000000 0.500000
0.179605 -0.293629 -0.122550 0.500000 0.000000 0.500000
0.321745 0.240750 0.129982 0.500000 0.000000 0.500000
0.143039 0.194609 0.311398 0.600000 0.000000 0.300000
0.017737 0.254903 0.238317 0.500000 0.000000 0.500000
0.141903 -0.217701 0.278232 0.300000 0.600000 0.000000
-0.291019 0.294343 -0.139457 0.500000 0.000000 0.500000
-0.311162 0.112256 0.082512 0.500000 0.000000 0.500000
-0.249121 -0.217064 -0.420064 0.500000 0.500000 0.000000
0.059733 -0.293629 -0.140051 0.500000 0.000000 0.500000
0.251547 0.294258 -0.083833 0.500000 0.000000 0.500000
-0.251967 -0.293573 0.262521 0.300000 0.600000 0.000000
-0.091609 -0.255938 0.277230 0.300000 0.600000 0.000000
0.083074 0.003994 -0.274696 0.500000 0.000000 0.500000
-0.309751 -0.288531 -0.026060 0.500000 0.000000 0.500000
-0.086735 0.294258 0.068680 0.500000 0.000000 0.500000
-0.300265 0.294533 0.075873 0.500000 0.000000 0.500000
0.320152 -0.019513 0.104169 0.500000 0.000000 0.500000
-0.042720 0.122440 0.277187 0.300000 0.600000 0.000000
-0.027917 -0.293629 -0.226918 0.500000 0.000000 0.500000
0.101860 -0.293629 0.116716 0.500000 0.000000 0.500000
-0.311162 -0.235772 -0.162408 0.500000 0.000000 0.500000
-0.180211 -0.293629 0.065555 0.500000 0.000000 0.500000
0.037923 0.042009 -0.274696 0.500000 0.000000 0.500000
-0.311162 -0.160600 0.143330 0.500000 0.000000 0.500000
0.323497 0.245653 0.179532 0.500000 0.000000 0.500000
0.012277 0.294431 -0.234920 0.500000 0.000000 0.500000
0.159704 0.245430 -0.276728 0.500000 0.000000 0.500000
0.148626 0.115889 -0.274696 0.500000 0.000000 0.500000
0.277981 0.179191 -0.274696 0.500000 0.000000 0.500000
-0.311162 0.145902 -0.210823 0.500000 0.000000 0.500000
-0.114349 -0.084900 0.278232 0.300000 0.600000 0.000000
0.256381 0.283836 -0.295196 0.500000 0.000000 0.500000
-0.323967 0.261379 -0.147414 0.500000 0.000000 0.500000
0.192952 0.295256 0.165788 0.500000 0.000000 0.500000
0.082187 -0.040135 -0.274696 0.500000 0.000000 0.500000
-0.311162 -0.103452 -0.072173 0.500000 0.000000 0.500000
0.319692 0.161025 -0.030035 0.500000 0.000000 0.500000
-0.005811 -0.044281 0.278028 0.300000 0.600000 0.000000
-0.172052 -0.124562 0.278232 0.300000 0.600000 0.000000
-0.246698 -0.217474 0.278232 0.300000 0.600000 0.000000
0.097837 -0.293629 0.226618 0.500000 0.000000 0.500000
-0.030124 -0.293629 0.169126 0.500000 0.000000 0.500000
-0.311156 0.049817 0.205416 0.500000 0.000000 0.500000
-0.088858 0.064066 0.277231 0.300000 0.600000 0.000000
0.320151 -0.129584 -0.153317 0.500000 0.000000 0.500000
-0.249359 -0.293629 -0.021597 0.500000 0.000000 0.500000
0.062856 -0.293629 0.142145 0.500000 0.000000 0.500000
-0.062432 -0.293629 -0.087451 0.500000 0.000000 0.500000
0.200829 -0.121414 -0.274696 0.500000 0.000000 0.500000
-0.092287 -0.224684 -0.274696 0.500000 0.000000 0.500000
0.167475 0.294258 -0.227414 0.500000 0.000000 0.500000
0.118437 0.294258 -0.088062 0.500000 0.000000 0.500000
0.310971 -0.213447 0.229842 0.500000 0.000000 0.500000
-0.064723 0.216231 0.278834 0.600000 0.000000 0.300000
0.201024 -0.015673 0.278232 0.300000 0.600000 0.000000
-0.311162 0.098569 -0.169348 0.500000 0.000000 0.500000
-0.162167 -0.181068 0.277919 0.300000 0.600000 0.000000
0.218829 0.294258 0.016548 0.500000 0.000000 0.500000
0.339079 0.284502 -0.240893 0.500000 0.000000 0.500000
0.107565 0.199599 -0.274696 0.500000 0.000000 0.500000
-0.305651 -0.292614 0.130073 0.500000 0.000000 0.500000
0.319720 0.230326 0.015037 0.500000 0.000000 0.500000
0.194163 -0.102163 0.278232 0.300000 0.600000 0.000000
-0.060084 0.043707 -0.274696 0.500000 0.000000 0.500000
-0.331730 0.285558 -0.246876 0.500000 0.000000 0.500000
-0.311162 0.045463 -0.212145 0.500000 0.000000 0.500000
0.268323 0.231345 -0.275088 0.500000 0.000000 0.500000
0.011984 -0.293629 -0.009669 0.500000 0.000000 0.500000
-0.311162 0.140205 -0.022131 0.500000 0.000000 0.500000
-0.250891 -0.022041 0.277559 0.300000 0.600000 0.000000
0.320146 -0.270969 0.153284 0.500000 0.000000 0.500000
0.287131 -0.293616 0.208178 0.500000 0.000000 0.500000
-0.168709 0.133725 -0.274696 0.500000 0.000000 0.500000
-0.311162 0.204299 -0.244736 0.500000 0.000000 0.500000
0.179847 0.088119 0.278232 0.300000 0.600000 0.000000
-0.039709 0.206521 0.291540 0.600000 0.000000 0.300000
-0.101996 -0.136855 -0.274696 0.500000 0.000000 0.500000
-0.192457 0.294258 0.094707 0.500000 0.000000 0.500000
-0.311162 -0.009836 -0.135571 0.500000 0.000000 0.500000
-0.147694 -0.232835 -0.274696 0.500000 0.000000 0.500000
-0.311162 -0.166446 -0.151069 0.500000 0.000000 0.500000
0.203242 -0.293629 -0.018805 0.500000 0.000000 0.500000
-0.054939 0.294258 0.154877 0.500000 0.000000 0.500000
-0.310627 -0.258128 -0.262437 0.500000 0.000000 0.500000
0.275205 -0.293629 0.072917 0.500000 0.000000 0.500000
-0.311162 0.085632 0.158945 0.500000 0.000000 0.500000
0.014995 -0.269742 0.277952 0.300000 0.600000 0.000000
0.291935 0.032936 -0.274694 0.500000 0.000000 0.500000
0.251545 0.117469 -0.274696 0.500000 0.000000 0.500000
-0.113109 -0.293629 0.029228 0.500000 0.000000 0.500000
0.074852 0.100351 0.277231 0.300000 0.600000 0.000000
-0.247880 -0.215947 -0.805850 0.500000 0.500000 0.000000
-0.106294 -0.292539 -0.269716 0.500000 0.000000 0.500000
-0.311162 -0.227424 -0.024707 0.500000 0.000000 0.500000
0.319537 0.073775 0.023126 0.500000 0.000000 0.500000
0.319151 -0.233293 -0.169861 0.500000 0.000000 0.500000
0.320139 -0.272882 0.205120 0.500000 0.000000 0.500000
0.285186 -0.293628 0.153717 0.500000 0.000000 0.500000
-0.197974 -0.292668 0.273685 0.300000 0.600000 0.000000
-0.250737 0.294258 0.098892 0.500000 0.000000 0.500000
0.339814 0.282305 -0.001261 0.500000 0.000000 0.500000
-0.307287 0.294324 0.240642 0.500000 0.000000 0.500000
0.320152 0.011223 -0.052621 0.500000 0.000000 0.500000
-0.036678 0.295256 -0.079712 0.500000 0.000000 0.500000
-0.323777 0.294198 -0.108037 0.500000 0.000000 0.500000
-0.217153 -0.293629 -0.210332 0.500000 0.000000 0.500000
-0.069118 -0.293629 0.099162 0.500000 0.000000 0.500000
-0.311160 -0.130232 -0.246827 0.500000 0.000000 0.500000
-0.164433 0.294258 -0.049208 0.500000 0.000000 0.500000
-0.110748 0.011316 0.277231 0.300000 0.600000 0.000000
-0.116632 -0.211158 0.277231 0.300000 0.600000 0.000000
0.320151 -0.015416 -0.003713 0.500000 0.000000 0.500000
-0.248076 0.294677 -0.223508 0.500000 0.000000 0.500000
-0.311162 -0.079635 0.067303 0.500000 0.000000 0.500000
-0.248414 -0.214328 -0.862346 0.500000 0.500000 0.000000
0.230285 0.151625 0.294827 0.600000 0.000000 0.300000
-0.071475 -0.293629 -0.183562 0.500000 0.000000 0.500000
-0.248111 0.289058 0.247430 0.500000 0.000000 0.500000
-0.227632 0.193750 -0.274696 0.500000 0.000000 0.500000
0.039606 -0.293629 0.216272 0.500000 0.000000 0.500000
-0.311162 -0.053128 0.018259 0.500000 0.000000 0.500000
-0.155151 0.227999 0.247893 0.300000 0.600000 0.000000
-0.311161 -0.260323 -0.201527 0.500000 0.000000 0.500000
0.254399 -0.250318 -0.274696 0.500000 0.000000 0.500000
-0.311162 -0.097447 -0.216247 0.500000 0.000000 0.500000
0.214009 0.294258 -0.053590 0.500000 0.000000 0.500000
0.136534 0.294258 -0.237200 0.500000 0.000000 0.500000
0.056717 0.169266 0.313278 0.600000 0.000000 0.300000
-0.311162 -0.210498 0.113642 0.500000 0.000000 0.500000
0.320152 0.007142 0.160889 0.500000 0.000000 0.500000
0.290104 -0.291733 0.248622 0.300000 0.600000 0.000000
0.322522 0.242456 -0.028900 0.500000 0.000000 0.500000
-0.138721 -0.293629 0.003493 0.500000 0.000000 0.500000
0.161938 -0.293629 0.195243 0.500000 0.000000 0.500000
0.245968 -0.293629 0.185155 0.500000 0.000000 0.500000
0.320152 0.189147 -0.066027 0.500000 0.000000 0.500000
0.320042 -0.187710 -0.009138 0.500000 0.000000 0.500000
0.185494 -0.293629 0.099658 0.500000 0.000000 0.500000
0.089753 0.294258 -0.195677 0.500000 0.000000 0.500000
0.111594 0.294258 -0.036519 0.500000 0.000000 0.500000
-0.057260 -0.293629 0.145709 0.500000 0.000000 0.500000
-0.311158 -0.264653 0.084024 0.500000 0.000000 0.500000
0.212501 -0.032522 -0.274696 0.500000 0.000000 0.500000
0.223463 0.068401 -0.274696 0.500000 0.000000 0.500000
-0.311162 0.088684 -0.237218 0.500000 0.000000 0.500000
-0.218465 -0.292207 -0.270445 0.500000 0.000000 0.500000
-0.176157 0.197026 0.310239 0.600000 0.000000 0.300000
-0.151036 0.135554 0.280458 0.300000 0.600000 0.000000
-0.287745 -0.030227 0.244471 0.300000 0.600000 0.000000
0.317593 0.000879 0.225086 0.500000 0.000000 0.500000
-0.311162 0.073077 0.111103 0.500000 0.000000 0.500000
-0.311162 0.113840 0.023339 0.500000 0.000000 0.500000
0.231480 -0.216537 -0.274696 0.500000 0.000000 0.500000
-0.311162 -0.067390 -0.067143 0.500000 0.000000 0.500000
0.156346 -0.293629 0.147491 0.500000 0.000000 0.500000
-0.017498 -0.293629 0.103242 0.500000 0.000000 0.500000
0.320152 0.079946 -0.202951 0.500000 0.000000 0.500000
-0.206199 -0.293629 -0.050951 0.500000 0.000000 0.500000
-0.008269 0.026466 -0.274696 0.500000 0.000000 0.500000
0.320152 -0.092220 0.020111 0.500000 0.000000 0.500000
0.223974 0.037231 0.278232 0.300000 0.600000 0.000000
0.060068 0.295162 0.228213 0.500000 0.000000 0.500000
0.107864 -0.082033 0.278232 0.300000 0.600000 0.000000
0.047070 -0.293629 -0.065278 0.500000 0.000000 0.500000
0.220749 0.216273 0.279579 0.600000 0.000000 0.300000
0.028142 0.294257 -0.109091 0.500000 0.000000 0.500000
-0.033074 -0.085996 0.277718 0.300000 0.600000 0.000000
-0.135173 -0.293629 -0.232370 0.500000 0.000000 0.500000
0.197606 0.021889 -0.274696 0.500000 0.000000 0.500000
0.203746 0.135933 0.281272 0.300000 0.600000 0.000000
0.304758 0.294815 -0.268904 0.500000 0.000000 0.500000
0.290887 -0.219944 0.256167 0.300000 0.600000 0.000000
0.320152 -0.087392 -0.206567 0.500000 0.000000 0.500000
-0.061012 -0.013952 0.277230 0.300000 0.600000 0.000000
-0.100583 -0.293629 0.143386 0.500000 0.000000 0.500000
0.092889 -0.157601 -0.274696 0.500000 0.000000 0.500000
0.334128 0.263277 0.223963 0.500000 0.000000 0.500000
-0.069602 0.295045 -0.100014 0.500000 0.000000 0.500000
-0.144729 -0.293629 0.176874 0.500000 0.000000 0.500000
0.042419 0.265693 0.244751 0.500000 0.000000 0.500000
-0.311162 -0.241353 0.112995 0.500000 0.000000 0.500000
0.192376 -0.293629 0.131916 0.500000 0.000000 0.500000
-0.114341 0.294258 0.061869 0.500000 0.000000 0.500000
0.286196 0.126826 0.274562 0.300000 0.600000 0.000000
0.320152 -0.180316 0.084189 0.500000 0.000000 0.500000
0.327410 0.252151 -0.239374 0.500000 0.000000 0.500000
-0.283618 -0.292150 0.244364 0.300000 0.600000 0.000000
0.177932 -0.030868 0.278232 0.300000 0.600000 0.000000
-0.167770 0.294258 0.197559 0.500000 0.000000 0.500000
-0.311162 0.040433 -0.063173 0.500000 0.000000 0.500000
0.339918 0.281601 0.109796 0.500000 0.000000 0.500000
0.274959 -0.293629 -0.189810 0.500000 0.000000 0.500000
-0.040805 0.294257 -0.026175 0.500000 0.000000 0.500000
0.320152 0.193973 0.165083 0.500000 0.000000 0.500000
0.319151 0.107772 0.007181 0.500000 0.000000 0.500000
0.245157 0.263819 0.243547 0.500000 0.000000 0.500000
-0.135572 0.008510 -0.274696 0.500000 0.000000 0.500000
0.320152 -0.195684 0.133733 0.500000 0.000000 0.500000
-0.198834 -0.084000 -0.274696 0.500000 0.000000 0.500000
-0.130746 0.294575 0.222130 0.500000 0.000000 0.500000
0.320030 -0.278970 0.080010 0.500000 0.000000 0.500000
-0.311162 0.142693 0.175609 0.500000 0.000000 0.500000
0.172639 0.058198 0.278232 0.300000 0.600000 0.000000
-0.001650 -0.293629 0.140343 0.500000 0.000000 0.500000
0.080359 -0.293629 -0.159523 0.500000 0.000000 0.500000
-0.152110 0.295256 -0.192324 0.500000 0.000000 0.500000
-0.311162 -0.060456 -0.237687 0.500000 0.000000 0.500000
0.319822 -0.176483 -0.181281 0.500000 0.000000 0.500000
0.260702 -0.246149 0.278231 0.300000 0.600000 0.000000
0.288647 -0.254167 0.267636 0.300000 0.600000 0.000000
0.198193 0.187057 0.313277 0.600000 0.000000 0.300000
-0.181598 0.158985 0.307623 0.600000 0.000000 0.300000
0.183499 0.116280 -0.274696 0.500000 0.000000 0.500000
-0.203377 -0.256120 -0.274678 0.500000 0.000000 0.500000
0.050410 -0.134669 -0.274696 0.500000 0.000000 0.500000
-0.116405 0.295256 -0.171496 0.500000 0.000000 0.500000
-0.251857 0.294258 -0.003280 0.500000 0.000000 0.500000
-0.329836 0.290377 0.154601 0.500000 0.000000 0.500000
-0.102739 -0.293629 -0.155966 0.500000 0.000000 0.500000
-0.240909 0.294258 0.191631 0.500000 0.000000 0.500000
-0.283039 0.294257 -0.172714 0.500000 0.000000 0.500000
0.174485 -0.075762 -0.274696 0.500000 0.000000 0.500000
-0.219437 0.294258 0.039799 0.500000 0.000000 0.500000
-0.058143 0.241481 0.236460 0.500000 0.000000 0.500000
-0.286450 0.064748 0.247121 0.300000 0.600000 0.000000
-0.194364 -0.054486 0.278037 0.300000 0.600000 0.000000
0.331056 0.258395 -0.137093 0.500000 0.000000 0.500000
0.167450 0.222032 0.263367 0.300000 0.600000 0.000000
0.035789 0.037027 0.277231 0.300000 0.600000 0.000000
-0.163450 -0.021413 0.277356 0.300000 0.600000 0.000000
0.074403 -0.293629 0.074151 0.500000 0.000000 0.500000
-0.286013 -0.092981 0.248020 0.300000 0.600000 0.000000
-0.311162 -0.067647 0.103257 0.500000 0.000000 0.500000
0.025580 0.295024 0.103445 0.500000 0.000000 0.500000
0.320152 0.078266 0.084966 0.500000 0.000000 0.500000
0.078672 0.255830 0.238686 0.500000 0.000000 0.500000
0.320152 -0.057202 0.144963 0.500000 0.000000 0.500000
0.297205 -0.164965 0.243458 0.300000 0.600000 0.000000
0.263477 0.213367 0.281165 0.600000 0.000000 0.300000
-0.311162 -0.120278 0.110360 0.500000 0.000000 0.500000
-0.130839 -0.151477 -0.274696 0.500000 0.000000 0.500000
0.320152 0.007096 -0.163771 0.500000 0.000000 0.500000
0.315760 -0.292464 -0.023189 0.500000 0.000000 0.500000
-0.106571 -0.293624 0.249348 0.300000 0.600000 0.000000
-0.311162 0.182069 -0.054015 0.500000 0.000000 0.500000
0.126018 -0.293600 -0.252086 0.500000 0.000000 0.500000
0.119305 -0.048901 -0.274696 0.500000 0.000000 0.500000
-0.036104 -0.135655 0.277231 0.300000 0.600000 0.000000
0.099127 0.295256 0.158397 0.500000 0.000000 0.500000
-0.143942 -0.293629 0.145710 0.500000 0.000000 0.500000
0.340068 0.279486 -0.098385 0.500000 0.000000 0.500000
0.050253 -0.231140 0.278232 0.300000 0.600000 0.000000
0.019041 0.294291 -0.082936 0.500000 0.000000 0.500000
-0.145122 0.294258 0.126251 0.500000 0.000000 0.500000
0.319151 0.178589 0.023085 0.500000 0.000000 0.500000
0.180620 0.295256 0.110914 0.500000 0.000000 0.500000
0.313740 0.261658 -0.285468 0.500000 0.000000 0.500000
-0.228603 0.169857 0.313563 0.600000 0.000000 0.300000
-0.281996 -0.259948 0.268548 0.300000 0.600000 0.000000
0.246915 0.099616 0.278232 0.300000 0.600000 0.000000
0.109877 0.162648 0.311263 0.600000 0.000000 0.300000
0.162180 0.295256 0.159959 0.500000 0.000000 0.500000
-0.255056 -0.263850 0.277887 0.300000 0.600000 0.000000
-0.311162 0.096972 -0.109159 0.500000 0.000000 0.500000
-0.067963 -0.100886 -0.274696 0.500000 0.000000 0.500000
-0.150554 -0.293629 -0.171960 0.500000 0.000000 0.500000
-0.311112 0.111326 -0.252072 0.500000 0.000000 0.500000
-0.141050 -0.088289 0.278232 0.300000 0.600000 0.000000
0.320152 -0.226098 0.067009 0.500000 0.000000 0.500000
0.320152 -0.179598 0.186053 0.500000 0.000000 0.500000
0.317515 -0.102035 0.225301 0.500000 0.000000 0.500000
0.298930 0.294321 -0.218653 0.500000 0.000000 0.500000
-0.041324 0.173955 0.313696 0.600000 0.000000 0.300000
0.010242 -0.097186 0.277682 0.300000 0.600000 0.000000
-0.140268 -0.293629 0.102600 0.500000 0.000000 0.500000
-0.123772 0.104295 -0.274696 0.500000 0.000000 0.500000
-0.178273 0.287404 -0.295222 0.500000 0.000000 0.500000
-0.211772 -0.293629 -0.082505 0.500000 0.000000 0.500000
-0.311162 0.053107 0.176340 0.500000 0.000000 0.500000
0.021254 0.294935 0.037145 0.500000 0.000000 0.500000
-0.143650 0.222134 0.271394 0.600000 0.000000 0.300000
0.320090 0.056415 0.208554 0.500000 0.000000 0.500000
-0.309885 -0.288213 0.042463 0.500000 0.000000 0.500000
0.016151 -0.212816 -0.274696 0.500000 0.000000 0.500000
-0.200630 -0.266262 0.277394 0.300000 0.600000 0.000000
0.058988 -0.060433 0.278232 0.300000 0.600000 0.000000
-0.311162 -0.026900 0.011155 0.500000 0.000000 0.500000
-0.311162 -0.053059 -0.101114 0.500000 0.000000 0.500000
-0.311162 0.207514 0.172287 0.500000 0.000000 0.500000
-0.060963 0.294258 0.079187 0.500000 0.000000 0.500000
-0.091077 0.214059 0.282815 0.600000 0.000000 0.300000
-0.311162 0.205193 0.049475 0.500000 0.000000 0.500000
0.320152 0.173794 -0.144503 0.500000 0.000000 0.500000
-0.210368 0.294880 -0.200366 0.500000 0.000000 0.500000
0.093061 -0.253502 -0.274696 0.500000 0.000000 0.500000
0.124204 0.204966 0.294340 0.600000 0.000000 0.300000
-0.199646 -0.293629 0.012036 0.500000 0.000000 0.500000
-0.017623 -0.293629 0.193989 0.500000 0.000000 0.500000
-0.311159 -0.110982 0.198262 0.500000 0.000000 0.500000
0.186570 0.294688 -0.277179 0.500000 0.000000 0.500000
0.320152 -0.125083 0.077070 0.500000 0.000000 0.500000
0.175454 -0.293629 -0.186777 0.500000 0.000000 0.500000
0.320152 -0.078653 -0.231880 0.500000 0.000000 0.500000
0.319992 0.138683 -0.044604 0.500000 0.000000 0.500000
-0.305221 -0.292674 0.101292 0.500000 0.000000 0.500000
0.319989 0.014644 -0.253890 0.500000 0.000000 0.500000
0.275897 0.294258 0.057933 0.500000 0.000000 0.500000
-0.060970 -0.293629 0.216077 0.500000 0.000000 0.500000
0.006970 0.132394 0.278560 0.300000 0.600000 0.000000
-0.162237 0.234694 -0.275439 0.500000 0.000000 0.500000
-0.311162 -0.190503 -0.127555 0.500000 0.000000 0.500000
-0.247775 -0.217034 -0.669498 0.500000 0.500000 0.000000
0.320152 0.161028 0.180004 0.500000 0.000000 0.500000
-0.231772 0.046740 -0.274696 0.500000 0.000000 0.500000
-0.092954 -0.110689 -0.274696 0.500000 0.000000 0.500000
0.002143 -0.293629 -0.151607 0.500000 0.000000 0.500000
-0.266427 0.294531 -0.284137 0.500000 0.000000 0.500000
-0.309738 0.268073 0.245809 0.500000 0.000000 0.500000
0.222830 -0.062276 0.278232 0.300000 0.600000 0.000000
0.244070 -0.113103 -0.274696 0.500000 0.000000 0.500000
0.217154 0.294258 -0.222250 0.500000 0.000000 0.500000
-0.311162 -0.052017 -0.037498 0.500000 0.000000 0.500000
0.319602 0.128644 0.065820 0.500000 0.000000 0.500000
0.034115 0.064616 0.277231 0.300000 0.600000 0.000000
0.319597 0.100185 -0.025435 0.500000 0.000000 0.500000
-0.111053 0.294258 -0.020271 0.500000 0.000000 0.500000
0.129627 0.070395 -0.274696 0.500000 0.000000 0.500000
-0.114685 0.295097 -0.274139 0.500000 0.000000 0.500000
-0.202985 0.295256 -0.252310 0.500000 0.000000 0.500000
-0.310895 0.025044 0.215819 0.500000 0.000000 0.500000
-0.311162 -0.054125 0.051890 0.500000 0.000000 0.500000
0.319151 0.202995 0.105311 0.500000 0.000000 0.500000
-0.282382 -0.138443 0.257637 0.300000 0.600000 0.000000
-0.031576 0.047426 -0.274696 0.500000 0.000000 0.500000
0.166430 -0.293614 -0.249374 0.500000 0.000000 0.500000
0.094843 -0.103272 -0.274696 0.500000 0.000000 0.500000
0.028019 -0.293626 0.246379 0.300000 0.600000 0.000000
-0.311162 0.142865 0.033143 0.500000 0.000000 0.500000
0.073731 0.295256 0.114906 0.500000 0.000000 0.500000
-0.060609 0.224814 -0.274693 0.500000 0.000000 0.500000
0.112981 0.294413 0.017560 0.500000 0.000000 0.500000
-0.311162 0.130604 -0.056467 0.500000 0.000000 0.500000
0.217881 -0.065907 -0.274696 0.500000 0.000000 0.500000
0.318350 -0.169003 -0.266227 0.500000 0.000000 0.500000
-0.094796 0.094787 -0.274696 0.500000 0.000000 0.500000
0.178137 0.294258 -0.170009 0.500000 0.000000 0.500000
0.320553 0.229683 -0.088687 0.500000 0.000000 0.500000
0.138454 -0.293629 0.102130 0.500000 0.000000 0.500000
0.135510 0.252350 0.237969 0.500000 0.000000 0.500000
-0.011930 -0.231974 0.277231 0.300000 0.600000 0.000000
0.101017 0.294258 -0.140386 0.500000 0.000000 0.500000
-0.046238 -0.119394 -0.274696 0.500000 0.000000 0.500000
0.327021 0.251458 -0.197503 0.500000 0.000000 0.500000
0.070765 -0.083816 -0.274696 0.500000 0.000000 0.500000
0.320150 0.182212 0.195425 0.500000 0.000000 0.500000
0.218224 0.295256 0.159061 0.500000 0.000000 0.500000
-0.187530 0.245776 -0.277120 0.500000 0.000000 0.500000
0.035397 -0.293629 0.113897 0.500000 0.000000 0.500000
-0.236737 -0.132055 -0.274695 0.500000 0.000000 0.500000
-0.247308 -0.099602 -0.274696 0.500000 0.000000 0.500000
0.040989 0.005239 -0.274696 0.500000 0.000000 0.500000
0.003545 0.199536 0.305375 0.600000 0.000000 0.300000
0.320141 0.225124 -0.154875 0.500000 0.000000 0.500000
0.311225 -0.293092 -0.100095 0.500000 0.000000 0.500000
-0.194964 0.294258 -0.111543 0.500000 0.000000 0.500000
0.071512 0.295256 0.144818 0.500000 0.000000 0.500000
-0.143993 0.255102 0.238200 0.500000 0.000000 0.500000
-0.261351 0.185313 0.300919 0.600000 0.000000 0.300000
0.320152 -0.151924 -0.205896 0.500000 0.000000 0.500000
0.319834 0.191839 -0.260891 0.500000 0.000000 0.500000
-0.311162 -0.204717 0.028564 0.500000 0.000000 0.500000
-0.311162 0.001394 0.100117 0.500000 0.000000 0.500000
-0.274023 0.167504 0.280833 0.300000 0.600000 0.000000
-0.018146 0.294258 0.160909 0.500000 0.000000 0.500000
0.077512 -0.293618 -0.248647 0.500000 0.000000 0.500000
0.290259 0.160274 0.269940 0.300000 0.600000 0.000000
-0.311162 0.059775 0.052634 0.500000 0.000000 0.500000
-0.311156 -0.268822 -0.074915 0.500000 0.000000 0.500000
0.242678 0.294651 -0.271721 0.500000 0.000000 0.500000
-0.156254 -0.262340 -0.274695 0.500000 0.000000 0.500000
-0.293016 0.294384 -0.038881 0.500000 0.000000 0.500000
-0.311162 -0.137715 -0.182594 0.500000 0.000000 0.500000
0.292827 0.233521 0.237656 0.500000 0.000000 0.500000
-0.186304 0.294258 0.045588 0.500000 0.000000 0.500000
-0.127165 -0.141190 0.278231 0.300000 0.600000 0.000000
0.014258 -0.124798 0.277765 0.300000 0.600000 0.000000
0.271611 -0.190626 0.277475 0.300000 0.600000 0.000000
0.320152 -0.073547 0.110459 0.500000 0.000000 0.500000
-0.311162 0.105080 0.141815 0.500000 0.000000 0.500000
-0.178487 0.186505 -0.274696 0.500000 0.000000 0.500000
-0.125820 0.118609 0.277207 0.300000 0.600000 0.000000
-0.177979 0.068638 -0.274696 0.500000 0.000000 0.500000
0.040372 0.294258 -0.068271 0.500000 0.000000 0.500000
-0.258552 0.212832 0.282055 0.600000 0.000000 0.300000
0.279298 -0.293629 0.121332 0.500000 0.000000 0.500000
0.320152 0.102073 0.163975 0.500000 0.000000 0.500000
0.320084 0.038652 -0.049052 0.500000 0.000000 0.500000
0.077154 -0.084147 0.278232 0.300000 0.600000 0.000000
0.082821 0.147450 -0.274696 0.500000 0.000000 0.500000
0.077165 -0.134824 -0.274696 0.500000 0.000000 0.500000
-0.258090 0.057421 -0.274696 0.500000 0.000000 0.500000
0.293049 0.195936 0.251928 0.300000 0.600000 0.000000
-0.311162 -0.151313 -0.211555 0.500000 0.000000 0.500000
-0.036176 -0.288898 -0.272497 0.500000 0.000000 0.500000
0.306970 -0.293431 -0.154429 0.500000 0.000000 0.500000
-0.173150 -0.293629 0.093235 0.500000 0.000000 0.500000
-0.075316 -0.293629 -0.241989 0.500000 0.000000 0.500000
0.306701 0.295256 0.221071 0.500000 0.000000 0.500000
-0.278505 -0.058773 -0.274696 0.500000 0.000000 0.500000
0.198228 0.009924 0.278232 0.300000 0.600000 0.000000
0.320152 0.155944 -0.213486 0.500000 0.000000 0.500000
-0.152425 -0.167988 -0.274696 0.500000 0.000000 0.500000
0.200421 -0.293629 -0.141715 0.500000 0.000000 0.500000
-0.311162 -0.248077 0.015165 0.500000 0.000000 0.500000
0.115596 -0.281275 -0.274439 0.500000 0.000000 0.500000
0.072746 0.294605 -0.264895 0.500000 0.000000 0.500000
-0.112606 0.294281 -0.090873 0.500000 0.000000 0.500000
-0.195487 0.280931 0.248427 0.500000 0.000000 0.500000
0.320152 -0.043630 -0.187136 0.500000 0.000000 0.500000
0.296379 0.294268 -0.030593 0.500000 0.000000 0.500000
-0.309931 -0.288105 -0.169213 0.500000 0.000000 0.500000
-0.312827 0.236913 -0.055312 0.500000 0.000000 0.500000
-0.311162 -0.151983 0.107185 0.500000 0.000000 0.500000
-0.310033 0.156580 -0.264435 0.500000 0.000000 0.500000
-0.314918 0.245874 0.126076 0.500000 0.000000 0.500000
0.219737 0.269021 -0.290760 0.500000 0.000000 0.500000
0.265689 0.176504 0.295129 0.600000 0.000000 0.300000
0.320150 0.214093 -0.200922 0.500000 0.000000 0.500000
0.306867 -0.221399 -0.274561 0.500000 0.000000 0.500000
0.262338 -0.293554 0.264287 0.300000 0.600000 0.000000
0.126831 -0.045603 0.278232 0.300000 0.600000 0.000000
0.164580 -0.042565 -0.274696 0.500000 0.000000 0.500000
-0.318655 0.294596 -0.009420 0.500000 0.000000 0.500000
0.163308 0.062162 -0.274696 0.500000 0.000000 0.500000
0.054575 0.294672 -0.014513 0.500000 0.000000 0.500000
0.299799 -0.293557 0.065609 0.500000 0.000000 0.500000
0.319188 -0.182573 -0.156564 0.500000 0.000000 0.500000
0.308055 0.151607 0.231612 0.500000 0.000000 0.500000
-0.311162 -0.203520 0.076752 0.500000 0.000000 0.500000
-0.034002 0.276848 0.248800 0.500000 0.000000 0.500000
-0.225935 -0.293629 0.098856 0.500000 0.000000 0.500000
0.320152 0.050102 -0.132334 0.500000 0.000000 0.500000
0.031311 -0.061218 -0.274696 0.500000 0.000000 0.500000
0.235144 0.236932 0.238496 0.500000 0.000000 0.500000
0.263102 0.294258 -0.128199 0.500000 0.000000 0.500000
0.319223 -0.261701 -0.062347 0.500000 0.000000 0.500000
-0.202633 0.111897 -0.274696 0.500000 0.000000 0.500000
-0.172836 -0.293629 -0.100640 0.500000 0.000000 0.500000
0.221694 -0.278282 -0.274549 0.500000 0.000000 0.500000
-0.311154 0.221734 -0.146334 0.500000 0.000000 0.500000
0.281741 0.283183 -0.295193 0.500000 0.000000 0.500000
0.319171 -0.138627 -0.051388 0.500000 0.000000 0.500000
-0.013341 -0.293629 -0.180823 0.500000 0.000000 0.500000
-0.036165 0.109758 -0.274696 0.500000 0.000000 0.500000
-0.219564 0.294258 0.177792 0.500000 0.000000 0.500000
-0.229071 0.099656 -0.274696 0.500000 0.000000 0.500000
0.086905 0.085102 -0.274696 0.500000 0.000000 0.500000
0.015443 0.253753 -0.281568 0.500000 0.000000 0.500000
0.320152 -0.144147 0.012155 0.500000 0.000000 0.500000
-0.311127 0.102488 0.207574 0.500000 0.000000 0.500000
-0.081266 0.181871 0.313766 0.600000 0.000000 0.300000
-0.258173 0.294258 -0.183474 0.500000 0.000000 0.500000
0.324830 0.276968 0.248259 0.500000 0.000000 0.500000
-0.258684 -0.203736 -0.301139 0.500000 0.500000 0.000000
-0.102243 0.287268 -0.295221 0.500000 0.000000 0.500000
-0.192460 -0.138850 -0.274696 0.500000 0.000000 0.500000
-0.311162 0.111418 -0.193779 0.500000 0.000000 0.500000
-0.121773 -0.293629 0.085424 0.500000 0.000000 0.500000
-0.311156 -0.269334 -0.228288 0.500000 0.000000 0.500000
0.222925 -0.280275 0.278007 0.300000 0.600000 0.000000
-0.311162 -0.192942 -0.189568 0.500000 0.000000 0.500000
0.010259 -0.101972 -0.274696 0.500000 0.000000 0.500000
-0.082299 -0.162113 -0.274696 0.500000 0.000000 0.500000
0.001751 0.171058 0.313466 0.600000 0.000000 0.300000
-0.092174 0.272401 0.247304 0.500000 0.000000 0.500000
0.114446 -0.293625 0.249128 0.300000 0.600000 0.000000
-0.061504 0.294715 -0.075820 0.500000 0.000000 0.500000
-0.233298 0.267169 -0.289938 0.500000 0.000000 0.500000
0.259415 0.122068 0.278215 0.300000 0.600000 0.000000
0.229157 -0.015280 0.278232 0.300000 0.600000 0.000000
-0.303460 0.294592 0.182668 0.500000 0.000000 0.500000
0.320152 -0.117657 -0.230920 0.500000 0.000000 0.500000
0.318215 -0.073236 0.222644 0.500000 0.000000 0.500000
0.020216 0.182264 -0.274696 0.500000 0.000000 0.500000
0.091107 -0.025205 0.278232 0.300000 0.600000 0.000000
-0.248720 -0.293629 -0.096562 0.500000 0.000000 0.500000
0.320152 -0.009315 -0.211392 0.500000 0.000000 0.500000
0.151718 -0.293629 0.220729 0.500000 0.000000 0.500000
0.002447 -0.293629 -0.090133 0.500000 0.000000 0.500000
0.257160 -0.150234 0.278231 0.300000 0.600000 0.000000
0.319307 -0.287153 0.105575 0.500000 0.000000 0.500000
-0.250478 -0.215304 -0.357370 0.500000 0.500000 0.000000
-0.109649 0.223749 -0.274693 0.500000 0.000000 0.500000
0.319758 -0.070354 -0.076270 0.500000 0.000000 0.500000
-0.311162 0.172942 -0.160787 0.500000 0.000000 0.500000
0.215453 -0.229416 0.278232 0.300000 0.600000 0.000000
-0.114560 -0.293629 -0.217074 0.500000 0.000000 0.500000
-0.318710 0.252672 0.154820 0.500000 0.000000 0.500000
0.041793 0.294258 -0.216679 0.500000 0.000000 0.500000
-0.054047 0.291537 0.246391 0.500000 0.000000 0.500000
-0.227463 -0.205810 -0.282109 0.500000 0.500000 0.000000
-0.269075 -0.293629 0.178470 0.500000 0.000000 0.500000
0.118685 -0.293629 -0.169281 0.500000 0.000000 0.500000
0.320152 0.145093 -0.096300 0.500000 0.000000 0.500000
0.084111 -0.183970 -0.274696 0.500000 0.000000 0.500000
0.320152 0.171936 -0.175571 0.500000 0.000000 0.500000
0.270888 -0.055738 -0.274696 0.500000 0.000000 0.500000
-0.310928 -0.152833 -0.261365 0.500000 0.000000 0.500000
0.256492 0.294258 -0.027376 0.500000 0.000000 0.500000
0.148416 -0.293629 -0.001186 0.500000 0.000000 0.500000
0.030999 0.094134 0.277231 0.300000 0.600000 0.000000
0.093161 0.294887 0.237436 0.500000 0.000000 0.500000
0.036614 -0.293629 -0.117643 0.500000 0.000000 0.500000
-0.195060 0.119545 0.277203 0.300000 0.600000 0.000000
-0.311065 -0.199050 -0.257299 0.500000 0.000000 0.500000
-0.009312 -0.006210 0.277230 0.300000 0.600000 0.000000
0.089605 0.294258 -0.024919 0.500000 0.000000 0.500000
-0.139577 0.259801 -0.285221 0.500000 0.000000 0.500000
-0.311162 -0.014058 -0.074664 0.500000 0.000000 0.500000
-0.040900 -0.293629 0.118267 0.500000 0.000000 0.500000
-0.305197 -0.067705 0.228076 0.500000 0.000000 0.500000
0.083866 -0.284764 0.277847 0.300000 0.600000 0.000000
0.155103 -0.091959 0.278232 0.300000 0.600000 0.000000
-0.328557 0.292308 0.126266 0.500000 0.000000 0.500000
-0.311162 -0.044070 -0.217248 0.500000 0.000000 0.500000
-0.311162 -0.083467 -0.023069 0.500000 0.000000 0.500000
-0.067940 -0.122581 0.277515 0.300000 0.600000 0.000000
-0.036210 -0.293629 0.061045 0.500000 0.000000 0.500000
0.037327 -0.293629 -0.165947 0.500000 0.000000 0.500000
0.225840 -0.293629 0.017570 0.500000 0.000000 0.500000
-0.187490 -0.293629 0.178416 0.500000 0.000000 0.500000
0.319151 -0.203926 -0.101256 0.500000 0.000000 0.500000
-0.018600 0.089389 0.277231 0.300000 0.600000 0.000000
-0.180792 0.246980 0.236520 0.500000 0.000000 0.500000
0.319140 0.223298 0.078820 0.500000 0.000000 0.500000
-0.103681 -0.293629 -0.101773 0.500000 0.000000 0.500000
0.297152 -0.268630 0.243254 0.300000 0.600000 0.000000
0.165175 0.163054 -0.274696 0.500000 0.000000 0.500000
0.283085 -0.293629 0.009759 0.500000 0.000000 0.500000
0.338522 0.271748 0.159356 0.500000 0.000000 0.500000
-0.135233 0.059238 -0.274696 0.500000 0.000000 0.500000
-0.331735 0.286040 -0.163967 0.500000 0.000000 0.500000
0.319151 -0.258059 -0.133896 0.500000 0.000000 0.500000
-0.014611 0.225720 0.250305 0.300000 0.600000 0.000000
-0.239400 -0.293629 -0.227828 0.500000 0.000000 0.500000
0.336937 0.290816 -0.050998 0.500000 0.000000 0.500000
0.150450 -0.293629 -0.124316 0.500000 0.000000 0.500000
0.320152 -0.216696 0.027837 0.500000 0.000000 0.500000
0.255890 -0.060020 0.278231 0.300000 0.600000 0.000000
0.137589 0.295256 0.133243 0.500000 0.000000 0.500000
0.230827 -0.293629 0.096921 0.500000 0.000000 0.500000
0.295248 0.090885 -0.274694 0.500000 0.000000 0.500000
-0.311162 -0.123355 -0.047728 0.500000 0.000000 0.500000
-0.172954 -0.293629 0.017105 0.500000 0.000000 0.500000
0.103889 -0.166587 0.278232 0.300000 0.600000 0.000000
-0.313734 0.282560 -0.294999 0.500000 0.000000 0.500000
-0.263713 -0.233053 -0.290254 0.500000 0.500000 0.000000
0.215843 0.276666 0.248742 0.500000 0.000000 0.500000
-0.274661 -0.293629 -0.149079 0.500000 0.000000 0.500000
-0.219734 -0.293629 0.149437 0.500000 0.000000 0.500000
0.290957 -0.099728 -0.274695 0.500000 0.000000 0.500000
0.320142 0.016995 0.206699 0.500000 0.000000 0.500000
0.255216 0.168475 -0.274696 0.500000 0.000000 0.500000
0.266668 -0.293629 -0.244394 0.500000 0.000000 0.500000
0.262227 0.294258 -0.206296 0.500000 0.000000 0.500000
-0.124254 -0.293629 -0.183848 0.500000 0.000000 0.500000
-0.265824 0.294258 0.017228 0.500000 0.000000 0.500000
-0.325155 0.294090 0.062035 0.500000 0.000000 0.500000
0.283226 -0.275919 -0.274634 0.500000 0.000000 0.500000
-0.311162 -0.105449 0.041511 0.500000 0.000000 0.500000
0.320152 -0.173635 0.056826 0.500000 0.000000 0.500000
0.110944 -0.247208 0.278232 0.300000 0.600000 0.000000
0.319890 -0.135192 -0.258347 0.500000 0.000000 0.500000
-0.311162 -0.044459 0.187719 0.500000 0.000000 0.500000
0.319151 0.201910 0.002516 0.500000 0.000000 0.500000
0.320152 -0.055167 -0.096801 0.500000 0.000000 0.500000
0.277432 0.294257 0.138704 0.500000 0.000000 0.500000
0.136458 -0.293629 -0.092230 0.500000 0.000000 0.500000
0.320151 0.159711 0.128195 0.500000 0.000000 0.500000
0.241043 0.222778 -0.274695 0.500000 0.000000 0.500000
0.182671 -0.189451 -0.274696 0.500000 0.000000 0.500000
-0.151239 -0.096631 -0.274696 0.500000 0.000000 0.500000
0.113475 -0.293629 -0.143596 0.500000 0.000000 0.500000
0.048973 0.222869 0.257683 0.300000 0.600000 0.000000
-0.014048 0.295020 -0.051304 0.500000 0.000000 0.500000
-0.088234 0.157843 0.305184 0.600000 0.000000 0.300000
-0.311162 0.174245 -0.079372 0.500000 0.000000 0.500000
-0.315352 0.294809 -0.269891 0.500000 0.000000 0.500000
-0.311162 -0.150897 -0.023921 0.500000 0.000000 0.500000
-0.281834 0.078308 0.268867 0.300000 0.600000 0.000000
-0.311162 0.007204 -0.018829 0.500000 0.000000 0.500000
0.319566 -0.224192 -0.032247 0.500000 0.000000 0.500000
0.111594 0.295256 0.183478 0.500000 0.000000 0.500000
0.320152 0.142155 -0.142482 0.500000 0.000000 0.500000
0.073347 -0.230320 -0.274696 0.500000 0.000000 0.500000
0.076043 0.217258 0.275422 0.600000 0.000000 0.300000
0.070392 -0.293629 0.022777 0.500000 0.000000 0.500000
0.192305 0.139008 -0.274696 0.500000 0.000000 0.500000
-0.225107 -0.255913 0.277506 0.300000 0.600000 0.000000
-0.269906 0.294448 0.215950 0.500000 0.000000 0.500000
0.103157 0.223633 0.254579 0.300000 0.600000 0.000000
-0.215166 0.198594 0.306887 0.600000 0.000000 0.300000
0.321588 0.245820 -0.268733 0.500000 0.000000 0.500000
0.320152 -0.257718 0.062686 0.500000 0.000000 0.500000
0.215297 -0.293629 0.234931 0.500000 0.000000 0.500000
0.320152 -0.143986 0.101912 0.500000 0.000000 0.500000
-0.175562 -0.071520 0.278232 0.300000 0.600000 0.000000
0.320152 0.036858 -0.173545 0.500000 0.000000 0.500000
-0.314663 0.294645 -0.205342 0.500000 0.000000 0.500000
-0.187131 -0.293629 -0.234353 0.500000 0.000000 0.500000
0.027618 -0.254029 -0.274696 0.500000 0.000000 0.500000
-0.157662 0.294258 -0.101374 0.500000 0.000000 0.500000
-0.147146 -0.275941 0.277542 0.300000 0.600000 0.000000
0.320152 0.059810 0.171167 0.500000 0.000000 0.500000
0.274155 0.295216 0.225066 0.500000 0.000000 0.500000
-0.311162 0.085510 0.066127 0.500000 0.000000 0.500000
-0.107872 -0.022239 -0.274696 0.500000 0.000000 0.500000
0.299365 -0.028713 0.239957 0.300000 0.600000 0.000000
0.155279 0.173776 0.313357 0.600000 0.000000 0.300000
0.138743 -0.128932 0.278232 0.300000 0.600000 0.000000
0.031009 0.210011 -0.274696 0.500000 0.000000 0.500000
-0.294966 -0.293481 0.181710 0.500000 0.000000 0.500000
-0.311156 -0.268741 -0.043679 0.500000 0.000000 0.500000
-0.311156 0.219148 -0.038892 0.500000 0.000000 0.500000
0.319351 -0.117176 -0.099063 0.500000 0.000000 0.500000
0.155832 0.144200 0.285652 0.300000 0.600000 0.000000
0.085551 -0.293629 0.097760 0.500000 0.000000 0.500000
0.012696 0.129353 -0.274696 0.500000 0.000000 0.500000
0.197231 0.204447 0.295706 0.600000 0.000000 0.300000
0.222301 0.294258 -0.153036 0.500000 0.000000 0.500000
0.154163 -0.089642 -0.274696 0.500000 0.000000 0.500000
-0.078961 -0.061999 -0.274696 0.500000 0.000000 0.500000
-0.160364 -0.293628 0.242374 0.300000 0.600000 0.000000
-0.084987 0.294258 -0.047459 0.500000 0.000000 0.500000
-0.311162 -0.145713 0.000648 0.500000 0.000000 0.500000
0.339112 0.283987 -0.161826 0.500000 0.000000 0.500000
0.165729 -0.227667 0.278232 0.300000 0.600000 0.000000
-0.101279 -0.293629 0.180143 0.500000 0.000000 0.500000
0.319737 -0.243666 -0.228149 0.500000 0.000000 0.500000
-0.264479 0.294258 0.147434 0.500000 0.000000 0.500000
0.235863 -0.293629 0.137100 0.500000 0.000000 0.500000
0.060592 0.050237 -0.274696 0.500000 0.000000 0.500000
0.319151 -0.212767 -0.147454 0.500000 0.000000 0.500000
0.139265 0.008610 -0.274696 0.500000 0.000000 0.500000
-0.240649 0.263601 0.243310 0.500000 0.000000 0.500000
0.320152 0.142849 0.158796 0.500000 0.000000 0.500000
0.320150 -0.032345 0.195853 0.500000 0.000000 0.500000
0.273724 -0.188355 -0.274696 0.500000 0.000000 0.500000
-0.080883 0.133128 -0.274696 0.500000 0.000000 0.500000
-0.028117 -0.102153 -0.274696 0.500000 0.000000 0.500000
-0.043281 -0.293629 -0.024514 0.500000 0.000000 0.500000
0.057639 -0.293629 -0.033643 0.500000 0.000000 0.500000
-0.152880 0.295256 -0.242121 0.500000 0.000000 0.500000
0.124237 -0.293629 -0.206135 0.500000 0.000000 0.500000
-0.231037 -0.169347 -0.276796 0.500000 0.000000 0.500000
-0.311162 0.057961 0.020941 0.500000 0.000000 0.500000
-0.248061 0.238806 -0.275858 0.500000 0.000000 0.500000
0.320152 -0.171285 0.008345 0.500000 0.000000 0.500000
0.230374 0.294258 0.066283 0.500000 0.000000 0.500000
-0.048860 0.203112 -0.274696 0.500000 0.000000 0.500000
-0.156650 -0.293629 0.054939 0.500000 0.000000 0.500000
-0.311154 0.221307 -0.095107 0.500000 0.000000 0.500000
-0.002107 -0.175649 -0.274696 0.500000 0.000000 0.500000
-0.100267 0.130110 0.277187 0.300000 0.600000 0.000000
0.277189 0.015658 0.276839 0.300000 0.600000 0.000000
-0.103475 -0.047004 0.277882 0.300000 0.600000 0.000000
-0.280761 -0.158267 0.270965 0.300000 0.600000 0.000000
-0.228711 -0.105226 0.278232 0.300000 0.600000 0.000000
0.314679 0.150169 -0.271736 0.500000 0.000000 0.500000
