ply
format ascii 1.0
element vertex 1267
property float x
property float y
property float z
property uchar red
property uchar green
property uchar blue
end_header
0.462790 0.496006 0.211327 204 51 127
0.373616 0.585646 -0.502626 153 76 0
0.421868 0.667100 0.566324 127 127 0
-0.451613 -0.266202 0.507277 204 51 127
0.462790 0.496981 -0.155925 204 51 127
0.220007 0.354954 -0.502626 153 76 0
-0.330290 -0.048464 0.566324 153 76 0
-0.254696 0.488528 0.110536 153 0 76
-0.419416 0.674109 -0.022701 0 0 255
0.349914 0.282465 -0.244626 204 51 127
0.398396 -0.446361 0.524040 153 0 76
0.362978 0.137194 0.192382 204 51 127
-0.127732 -0.699441 -0.554142 127 0 127
-0.419416 0.544073 -0.353038 0 0 255
0.135244 0.501855 -0.348079 76 153 0
-0.419416 0.349036 -0.478430 0 0 255
0.462790 -0.206461 -0.415662 204 51 127
-0.438734 0.611551 -0.278605 0 0 255
0.443472 -0.001786 -0.389434 204 51 127
-0.428566 0.596432 0.566324 127 127 0
0.096815 -0.525687 0.490169 0 0 255
0.249723 -0.286950 -0.322321 204 51 127
-0.136493 -0.274747 -0.348079 204 51 127
0.362978 -0.130933 -0.294093 76 0 153
-0.438734 -0.443225 0.302697 0 0 255
-0.085799 -0.461292 0.277167 76 0 153
0.040656 -0.314972 0.501930 153 76 0
-0.419416 -0.018425 -0.433706 0 0 255
0.045485 -0.475690 0.566324 153 76 0
0.375119 0.100539 -0.515505 153 76 0
0.462790 0.154428 -0.280996 204 51 127
0.413473 0.397505 -0.515505 153 76 0
-0.438734 -0.416986 -0.006964 0 0 255
0.443472 0.291006 0.297114 204 51 127
-0.438734 0.214719 -0.265888 0 0 255
0.443472 -0.148946 0.434605 204 51 127
0.033991 0.736447 -0.515977 127 127 0
-0.222182 0.163335 0.325716 255 0 0
-0.338923 0.254270 0.104968 153 0 76
-0.438734 0.131551 -0.504270 0 0 255
0.066581 0.351979 0.527688 76 0 153
0.443472 0.084804 -0.250138 204 51 127
0.247927 0.557558 -0.502626 153 76 0
0.095341 -0.310428 0.566324 153 76 0
-0.221241 0.163335 0.094099 255 0 0
-0.419416 -0.093119 0.328563 0 0 255
0.462790 -0.032700 0.186448 204 51 127
0.083564 -0.736713 -0.554142 127 0 127
-0.241880 -0.332152 -0.348079 204 51 127
0.462790 0.441418 -0.055857 204 51 127
0.337221 -0.208446 0.056507 76 0 153
0.413956 -0.487050 0.268891 76 0 153
-0.213601 0.603600 -0.554142 127 127 0
0.125262 -0.024909 0.489051 255 0 0
-0.419416 0.577215 0.399905 0 0 255
0.115257 0.399310 -0.502626 153 76 0
-0.157018 0.163335 0.210492 255 0 0
0.277298 0.103428 0.566324 76 0 153
0.337221 -0.309947 -0.108097 76 0 153
0.355712 -0.195212 -0.502626 153 76 0
-0.438734 0.085119 -0.357045 0 0 255
0.337221 0.272973 -0.003116 204 51 127
0.303894 0.228742 -0.322321 0 0 255
-0.388922 -0.454853 -0.543856 127 0 127
-0.378093 0.015686 0.489051 204 51 127
-0.419416 -0.031330 0.082422 0 0 255
0.398396 -0.519017 0.490470 153 0 76
-0.238074 0.498187 -0.053212 153 0 76
0.387932 -0.487050 -0.073371 76 0 153
0.371102 0.222422 0.527688 76 0 153
-0.144227 -0.487050 -0.264415 76 0 153
0.383429 0.467720 -0.502626 153 76 0
-0.313165 -0.321952 0.147569 153 0 76
-0.438734 0.172780 -0.171895 0 0 255
0.328275 -0.754714 -0.554142 127 0 127
0.291339 0.144225 -0.348079 0 0 255
0.122935 0.295321 0.566324 76 0 153
-0.197235 0.153676 0.269919 255 0 0
0.151322 -0.400118 -0.283190 0 0 255
0.254467 0.163335 0.354561 255 0 0
0.423790 -0.069064 0.527688 153 76 0
-0.200317 0.498187 0.050605 153 0 76
-0.313165 0.464043 0.141649 127 0 127
0.277663 0.153676 0.169262 255 0 0
-0.140509 0.000876 -0.515505 153 76 0
-0.419416 -0.100926 -0.184247 0 0 255
0.462790 0.018307 0.089447 204 51 127
-0.419416 0.430952 0.461822 0 0 255
0.475669 -0.450443 0.508680 153 0 76
0.462790 -0.292796 -0.444192 204 51 127
0.462790 -0.303329 0.266253 204 51 127
-0.338923 0.565578 -0.342673 127 0 127
-0.338923 -0.296513 -0.311454 153 0 76
0.362978 -0.132250 0.225217 76 0 153
0.362978 -0.316283 0.469861 76 0 153
-0.421101 0.300754 -0.554141 0 0 255
-0.419416 -0.303570 -0.146137 0 0 255
-0.352799 0.628199 0.566324 127 127 0
0.282608 0.016976 0.489051 255 0 0
-0.329065 0.166383 0.527688 153 0 76
-0.419416 0.100585 0.360145 0 0 255
0.355405 0.462770 -0.026053 0 127 127
0.337221 -0.378495 -0.277604 76 0 153
0.019648 0.390665 -0.515505 153 76 0
-0.057810 -0.069582 -0.502626 153 76 0
0.388918 0.002816 -0.515505 153 76 0
-0.161326 0.656731 0.566324 127 127 0
0.192603 -0.487050 -0.476644 76 0 153
-0.394986 -0.342913 0.489051 204 51 127
-0.199283 -0.487050 -0.428272 76 0 153
-0.170219 0.608793 -0.348079 76 153 0
0.443472 -0.586403 -0.123338 127 127 0
-0.311141 -0.594874 -0.554142 127 0 127
0.462790 -0.062985 0.100197 204 51 127
0.203445 -0.400118 0.070421 0 0 255
0.112925 -0.250337 0.527688 153 76 0
-0.026699 0.488528 -0.035134 153 0 76
0.231029 0.153676 -0.188692 255 0 0
0.185738 0.153676 0.463758 255 0 0
-0.438734 0.378294 -0.070738 0 0 255
0.462790 0.527273 -0.497426 204 51 127
-0.419416 0.019532 0.412630 0 0 255
-0.255346 -0.461292 -0.145071 76 0 153
-0.210920 0.498187 0.374586 153 0 76
0.248555 -0.128577 0.501930 153 76 0
-0.313165 0.243868 0.187981 153 0 76
-0.147207 0.163335 -0.213594 255 0 0
0.443472 -0.134490 -0.377852 204 51 127
0.289363 0.163335 -0.180245 255 0 0
-0.313165 -0.179273 -0.057992 153 0 76
-0.246770 0.462770 0.517090 127 127 0
0.103478 -0.390458 0.168397 0 0 255
0.462790 -0.696992 -0.294873 127 127 0
-0.438734 0.571601 0.452637 0 0 255
-0.236209 0.488528 -0.278108 153 0 76
0.337221 -0.156195 0.269937 76 0 153
0.462790 -0.239547 0.192671 204 51 127
-0.451613 -0.374780 0.523286 204 51 127
0.088208 0.112426 -0.502626 153 76 0
-0.310176 0.209875 -0.515505 153 76 0
-0.338923 0.590735 0.352024 127 0 127
-0.438734 -0.703499 0.228358 0 127 127
0.311381 -0.487050 -0.373695 76 0 153
-0.438734 -0.169043 -0.253472 0 0 255
-0.418593 -0.734685 0.366701 76 153 0
0.029289 0.463633 0.501930 127 127 0
-0.201590 -0.540545 -0.515505 127 0 127
0.443472 0.316685 0.480465 204 51 127
-0.419416 -0.246622 0.454698 0 0 255
-0.201144 0.127918 0.512221 76 0 153
-0.338923 -0.116120 0.120149 153 0 76
0.425744 -0.623987 -0.554142 127 0 127
0.302885 0.289934 0.527688 76 0 153
0.462790 0.046963 -0.071351 204 51 127
-0.313165 0.550493 0.268549 127 0 127
0.443472 -0.026618 -0.282592 204 51 127
0.443472 -0.238981 0.068914 204 51 127
0.362978 0.221860 -0.082604 204 51 127
0.271124 -0.487050 0.371891 76 0 153
0.065854 0.498187 -0.051308 153 0 76
-0.040217 0.452452 -0.502626 153 76 0
-0.419416 0.488414 0.263091 0 0 255
0.462790 0.449981 0.452088 204 51 127
0.199496 0.262220 0.566324 76 0 153
-0.273803 -0.646725 0.366701 76 153 0
0.462790 -0.239834 -0.341828 204 51 127
0.355220 -0.097062 -0.502626 153 76 0
0.368132 0.383558 0.527688 127 127 0
-0.012352 -0.430629 0.566324 153 76 0
-0.419416 0.376371 0.371354 0 0 255
-0.338923 -0.292296 -0.058810 153 0 76
-0.313165 0.279862 -0.133354 153 0 76
0.301950 0.460936 -0.502626 153 76 0
-0.389408 0.435544 0.527688 127 127 0
-0.040677 -0.242745 0.613707 76 0 153
-0.045870 0.581900 -0.546631 127 127 0
-0.438734 0.451711 -0.480805 0 0 255
0.065858 -0.425875 0.514431 153 76 0
-0.113839 -0.461292 0.137517 76 0 153
0.277665 0.050014 -0.502626 153 76 0
-0.313165 0.230252 0.415093 153 0 76
-0.134354 0.488528 -0.293973 153 0 76
-0.438734 0.365351 -0.291476 0 0 255
0.153908 -0.678251 -0.554142 127 0 127
0.043051 0.274744 0.501930 76 0 153
-0.438734 0.016360 -0.269209 0 0 255
0.344264 -0.319341 0.566324 153 76 0
0.347168 0.324322 0.516600 127 127 0
0.443472 -0.551081 0.189685 127 127 0
0.155941 -0.400118 0.313520 0 0 255
0.362978 -0.121974 0.124572 76 0 153
-0.171208 -0.275734 0.527688 153 76 0
0.252198 -0.367517 -0.502626 153 76 0
0.362978 -0.202414 -0.108828 76 0 153
0.443472 0.684469 -0.286954 204 51 127
0.406080 -0.461292 -0.116484 76 0 153
0.462790 -0.326310 -0.222239 204 51 127
-0.272320 0.163335 -0.211713 255 0 0
-0.140353 -0.488678 -0.515505 127 0 127
-0.055317 -0.356686 0.527688 153 76 0
-0.267997 0.629516 0.527688 127 127 0
0.443472 -0.637515 0.315097 127 127 0
-0.009609 -0.400118 0.324192 0 0 255
-0.192720 0.488528 -0.241804 153 0 76
-0.025806 0.622801 -0.502626 153 76 0
-0.419416 0.290351 0.352142 0 0 255
0.443472 0.558024 -0.193911 204 51 127
-0.238977 -0.157738 0.527688 153 76 0
-0.419416 -0.054067 -0.494670 0 0 255
0.443472 -0.748157 0.315689 127 127 0
-0.438734 -0.338269 0.275044 0 0 255
-0.155492 0.153676 0.367132 255 0 0
-0.327697 0.401595 0.507805 127 127 0
-0.388914 -0.306677 0.527688 153 76 0
0.006979 -0.390458 0.161744 0 0 255
-0.438734 -0.723780 -0.145108 0 127 127
0.278453 -0.548888 -0.515505 127 0 127
0.362978 0.523366 0.452705 0 127 127
0.151223 0.586401 -0.554142 127 127 0
-0.137137 0.372617 0.559772 127 127 0
-0.419416 -0.124889 -0.425385 0 0 255
0.337221 -0.126251 0.367630 76 0 153
-0.015929 0.698287 0.566324 127 127 0
0.046300 -0.697325 -0.515505 127 0 127
-0.037736 0.498187 0.224568 153 0 76
-0.282250 -0.487050 0.070782 76 0 153
0.360817 -0.425875 -0.147044 76 0 153
0.252538 0.667523 0.527688 127 127 0
-0.076926 0.632833 0.527688 127 127 0
-0.338923 -0.379539 0.027919 153 0 76
0.443472 0.591792 0.241392 204 51 127
-0.438734 0.243859 -0.045063 0 0 255
0.259859 -0.157201 -0.502626 153 76 0
-0.057963 0.163335 0.271675 255 0 0
-0.259413 0.613515 -0.322321 76 153 0
0.291971 -0.144668 0.527688 153 76 0
-0.266560 -0.461292 -0.356570 76 0 153
0.443472 -0.319227 -0.401893 204 51 127
0.448128 -0.757508 -0.459488 127 127 0
-0.419416 -0.016830 -0.554118 0 0 255
-0.313165 0.607900 0.068822 127 0 127
-0.424962 0.063366 0.566324 76 0 153
-0.419416 -0.486390 0.074984 0 0 255
-0.008897 0.020586 0.489051 255 0 0
0.165333 0.195088 -0.502626 153 76 0
0.462790 -0.398351 0.299952 204 51 127
0.443472 0.366897 0.035881 204 51 127
-0.438734 -0.116222 0.270200 0 0 255
0.047994 0.498187 -0.209205 153 0 76
-0.419416 -0.474914 0.410773 0 0 255
0.252639 0.670251 -0.554142 127 127 0
-0.438734 0.685849 0.183565 0 0 255
0.443472 0.725818 0.094801 204 51 127
-0.224092 0.549700 -0.515505 153 76 0
0.443472 0.540450 0.318152 204 51 127
-0.317054 -0.078145 -0.293554 153 0 76
-0.251879 -0.430684 0.527688 153 76 0
-0.300421 0.153676 -0.012152 255 0 0
-0.332327 -0.425875 -0.216221 153 0 76
0.164062 0.668679 0.489051 0 255 0
0.284447 -0.183472 -0.322321 204 51 127
-0.145193 0.543857 0.527688 127 127 0
-0.073400 0.488528 0.271176 153 0 76
0.138733 -0.314091 -0.348079 204 51 127
-0.412678 -0.405649 -0.502626 153 76 0
0.015106 0.020664 -0.515505 153 76 0
0.362978 -0.138564 0.500924 76 0 153
0.462790 -0.040038 0.295251 204 51 127
0.137028 -0.487050 0.421690 76 0 153
0.462790 -0.236904 -0.159968 204 51 127
-0.438734 -0.376149 0.340987 0 0 255
0.389741 0.565142 0.527688 127 127 0
-0.438734 -0.008799 0.259192 0 0 255
-0.179177 -0.390458 -0.151697 0 0 255
-0.279173 0.418073 -0.515505 153 76 0
0.231879 0.153676 -0.028369 255 0 0
-0.195807 0.153676 -0.123629 255 0 0
-0.310668 -0.082251 -0.515505 153 76 0
0.255627 0.736447 0.508342 0 255 0
-0.419416 -0.676882 -0.308050 0 127 127
-0.172732 0.622838 0.527688 127 127 0
-0.190610 0.199963 -0.515505 153 76 0
0.324602 0.417002 0.566324 127 127 0
-0.257641 0.138707 -0.515505 153 76 0
0.462790 -0.178550 -0.083881 204 51 127
-0.195423 -0.390458 -0.032728 0 0 255
0.337221 -0.200290 -0.329410 76 0 153
-0.419416 0.363494 -0.200023 0 0 255
-0.419416 0.085954 0.205358 0 0 255
-0.032807 -0.222929 0.501930 153 76 0
-0.338923 0.573909 -0.026839 127 0 127
-0.241181 0.153676 -0.320995 255 0 0
-0.198849 -0.159562 -0.515505 153 76 0
0.228867 0.498187 0.046496 153 0 76
0.047765 0.570169 -0.348079 76 153 0
0.291808 -0.255525 -0.515505 153 76 0
0.362978 0.241905 0.268645 204 51 127
-0.419416 -0.733324 0.072959 0 127 127
-0.438734 -0.185289 0.274196 0 0 255
-0.419416 0.447108 -0.036243 0 0 255
0.460567 0.736448 -0.297899 204 51 127
-0.419416 -0.544085 0.142100 0 127 127
-0.368541 -0.487050 -0.069188 76 0 153
-0.419416 -0.083558 0.000131 0 0 255
-0.168983 -0.423123 -0.322321 204 51 127
0.339594 0.282465 0.313190 204 51 127
0.171444 -0.659821 0.366701 76 153 0
0.078584 0.066743 0.509956 255 0 0
0.443472 0.026093 0.168127 204 51 127
0.199756 0.163335 -0.129838 255 0 0
-0.338923 0.199678 0.448536 153 0 76
-0.106505 -0.509433 -0.554142 127 0 127
0.254218 0.566968 -0.348079 76 153 0
0.041616 -0.024769 -0.502626 153 76 0
-0.419416 -0.146843 -0.050654 0 0 255
0.182623 -0.487050 -0.291120 76 0 153
-0.419416 -0.572124 -0.290320 0 127 127
0.351373 0.709135 0.527688 127 127 0
-0.333647 -0.487399 -0.515505 127 0 127
0.184596 0.179633 0.527688 76 0 153
0.055281 -0.390458 -0.232367 0 0 255
0.443472 -0.204210 -0.301916 204 51 127
0.114880 0.642521 0.527688 127 127 0
0.135580 -0.204901 -0.515505 153 76 0
0.443472 -0.719636 -0.082621 127 127 0
-0.160967 -0.390458 0.421014 0 0 255
0.475669 0.430405 0.512132 153 0 76
-0.438734 -0.309424 0.011871 0 0 255
0.168511 -0.094184 0.501930 153 76 0
-0.294862 -0.697386 -0.515505 127 0 127
0.443472 -0.067046 -0.022274 204 51 127
-0.337068 -0.488206 0.527688 153 76 0
0.103874 -0.410084 0.566324 153 76 0
-0.127084 0.032049 0.527688 76 0 153
0.046855 -0.461292 0.223931 76 0 153
0.411733 -0.487050 0.386159 76 0 153
-0.438734 0.098305 -0.230008 0 0 255
-0.419416 0.222614 0.018182 0 0 255
0.012091 -0.461292 -0.500566 76 0 153
-0.056296 0.281788 0.527688 76 0 153
-0.118833 -0.448413 0.490641 0 0 255
0.443472 0.617790 -0.353852 204 51 127
-0.251723 0.498187 -0.155251 153 0 76
-0.306307 -0.379895 0.527688 153 76 0
0.462790 0.674049 0.120822 204 51 127
-0.282451 -0.020019 0.489051 255 0 0
0.462790 0.335916 0.193062 204 51 127
-0.100898 0.184620 0.527688 76 0 153
-0.255284 0.095751 0.566324 76 0 153
0.074175 -0.512599 0.347383 76 153 0
0.443472 0.609521 -0.198340 204 51 127
0.337221 0.572078 0.349018 0 127 127
0.416784 0.003436 0.527688 153 0 76
-0.298969 -0.390458 -0.075542 0 0 255
0.359547 -0.461292 -0.431376 76 0 153
0.443472 0.636310 0.061048 204 51 127
0.211734 0.488528 0.458848 153 0 76
0.362978 0.552867 -0.343862 0 127 127
-0.419416 0.209236 0.112598 0 0 255
-0.438734 -0.643862 -0.512835 0 127 127
-0.338923 -0.192482 0.051731 153 0 76
0.314551 -0.534999 0.347383 76 153 0
-0.084187 0.153676 -0.187484 255 0 0
0.362978 0.535947 -0.106279 0 127 127
-0.338923 0.532401 0.354269 127 0 127
0.462790 0.490977 -0.407197 204 51 127
-0.438734 -0.652511 -0.106647 0 127 127
0.443472 -0.246748 0.382025 204 51 127
0.067099 -0.281808 -0.515505 153 76 0
0.174783 -0.356668 -0.348079 204 51 127
-0.259181 -0.504103 -0.515505 127 0 127
-0.019888 0.147334 -0.348079 0 0 255
0.287453 -0.487050 -0.286352 76 0 153
0.356654 -0.034030 0.527688 255 0 0
0.140584 0.153676 -0.218196 255 0 0
0.443472 -0.704118 0.222200 127 127 0
0.224044 0.221703 -0.322321 0 0 255
-0.087370 -0.487050 0.014135 76 0 153
-0.313165 -0.294982 0.029867 153 0 76
0.272049 -0.424755 -0.515505 153 76 0
0.367443 -0.517660 -0.554142 127 0 127
0.077641 -0.461292 -0.364794 76 0 153
-0.419416 -0.525421 0.297111 0 0 255
0.102940 0.153676 0.349843 255 0 0
-0.073427 -0.283784 -0.515505 153 76 0
0.197307 0.498187 -0.298102 153 0 76
0.289967 -0.512303 0.489051 0 0 255
0.362978 -0.191527 0.450321 76 0 153
0.462790 0.176580 0.467069 204 51 127
-0.380931 -0.141423 0.566324 153 76 0
-0.218157 -0.400118 -0.231552 0 0 255
0.315195 0.191937 0.501930 76 0 153
0.462790 -0.438445 0.165546 204 51 127
0.443472 -0.628027 -0.093521 127 127 0
-0.272667 0.217119 0.527688 76 0 153
-0.419416 0.064951 0.278954 0 0 255
-0.112543 -0.461292 -0.352902 76 0 153
-0.419416 -0.179620 0.374906 0 0 255
-0.261037 -0.461292 -0.079388 76 0 153
0.392703 0.344998 -0.515505 153 76 0
-0.438734 0.682474 -0.339467 0 0 255
0.032936 0.340737 0.566324 76 0 153
-0.327785 -0.078145 0.029237 153 0 76
0.270252 0.488528 0.001400 153 0 76
0.349669 0.617317 -0.061930 0 127 127
-0.019132 -0.487050 0.476187 76 0 153
0.462790 -0.043449 0.390951 204 51 127
0.241489 0.548503 0.566324 127 127 0
-0.101791 0.665075 0.566324 127 127 0
-0.209753 0.384585 0.566324 127 127 0
-0.291330 -0.622202 -0.515505 127 0 127
-0.423164 0.117318 -0.554141 0 0 255
0.422767 -0.123962 -0.515505 153 76 0
-0.203226 0.194044 -0.322321 0 0 255
0.443472 -0.147143 0.047808 204 51 127
-0.289155 -0.461292 -0.414744 76 0 153
0.443472 0.688898 -0.047615 204 51 127
-0.095339 -0.218251 -0.502626 153 76 0
-0.373765 -0.573852 -0.554142 127 0 127
-0.014421 0.207597 0.501930 76 0 153
-0.111098 0.723053 0.489051 0 255 0
0.462790 -0.473218 -0.439523 204 51 127
0.316888 -0.162214 -0.502626 153 76 0
-0.091044 -0.487050 -0.284953 76 0 153
0.170983 0.668746 -0.502626 153 76 0
-0.150991 0.310881 0.527688 76 0 153
-0.419416 0.107276 0.005027 0 0 255
0.012337 0.163335 -0.075610 255 0 0
0.443472 0.419903 0.127656 204 51 127
-0.319446 0.031545 0.489051 255 0 0
0.122303 -0.461292 0.174456 76 0 153
0.337221 -0.362507 0.272800 76 0 153
0.179028 0.116564 -0.515505 153 76 0
-0.419416 -0.571852 -0.483991 0 127 127
-0.287058 -0.390458 -0.316799 0 0 255
-0.206336 0.026684 0.527688 255 0 0
0.462790 0.486211 -0.258027 204 51 127
-0.438734 0.026041 -0.463439 0 0 255
-0.246338 -0.020965 0.527688 255 0 0
0.104383 -0.068447 0.566324 153 76 0
0.187189 -0.146397 -0.322321 204 51 127
-0.111807 0.642602 -0.554142 127 127 0
-0.338923 -0.252915 0.516546 153 0 76
0.002898 0.542764 0.566324 127 127 0
0.177471 -0.224477 -0.322321 204 51 127
-0.433683 0.736448 -0.174423 0 0 255
-0.344548 -0.456087 0.489051 0 0 255
-0.419416 -0.134307 0.049850 0 0 255
-0.037846 -0.461292 -0.135452 76 0 153
0.443472 0.570219 0.394815 204 51 127
-0.031648 0.539466 -0.322321 76 153 0
-0.326027 0.672052 -0.504532 153 76 0
-0.421323 0.736448 0.297245 0 0 255
0.025991 0.488528 0.148611 153 0 76
-0.190784 0.469181 -0.502626 153 76 0
0.272113 0.163335 0.419620 255 0 0
0.123290 -0.461292 0.037829 76 0 153
-0.313165 0.172017 -0.314354 153 0 76
0.200250 0.488528 0.146083 153 0 76
-0.286583 -0.336999 0.566324 153 76 0
-0.105949 0.060974 0.489051 255 0 0
-0.054462 0.707154 0.489051 0 255 0
0.443472 -0.683051 0.053668 127 127 0
-0.438734 -0.185735 -0.327240 0 0 255
-0.294982 -0.695106 0.347383 76 153 0
0.462790 -0.714631 -0.189949 127 127 0
0.045747 -0.380387 0.527688 153 76 0
0.443472 0.622930 -0.456218 204 51 127
-0.196731 -0.480832 0.489051 76 0 153
0.443472 0.128519 -0.071644 204 51 127
0.401284 0.153239 0.527688 76 0 153
-0.019541 -0.461292 -0.052074 76 0 153
-0.338923 -0.422193 0.168527 153 0 76
0.257713 0.251895 0.566324 76 0 153
-0.249839 0.666720 0.566324 127 127 0
-0.355910 0.374317 -0.515505 153 76 0
-0.419416 -0.256788 0.359076 0 0 255
0.003178 -0.202972 -0.322321 204 51 127
-0.080867 -0.528946 0.366701 76 153 0
0.001314 -0.337705 -0.515505 153 76 0
-0.419416 -0.703171 0.322545 0 127 127
-0.419416 0.562637 0.288305 0 0 255
0.282301 0.502222 -0.348079 76 153 0
-0.338923 -0.201997 0.306855 153 0 76
-0.438734 -0.477103 -0.264880 0 0 255
0.159405 -0.757508 0.365910 76 153 0
0.335645 0.091886 0.527688 76 0 153
0.462790 0.469519 -0.487405 204 51 127
-0.020185 -0.284070 -0.502626 153 76 0
0.250915 0.127918 0.501938 76 0 153
0.462790 0.129738 0.177531 204 51 127
0.443472 0.205322 -0.007921 204 51 127
-0.451613 -0.098751 0.526996 204 51 127
-0.438734 0.547001 0.353222 0 0 255
0.057915 0.238613 -0.348079 0 0 255
-0.432924 0.736448 -0.262228 0 0 255
0.443472 -0.627001 -0.040354 127 127 0
0.411599 -0.412843 0.489051 153 0 76
0.462790 0.229046 0.081458 204 51 127
0.337221 -0.364789 -0.177566 76 0 153
-0.163991 0.458687 0.566324 127 127 0
-0.338923 -0.394755 -0.326333 153 0 76
-0.407699 0.051317 -0.502626 153 76 0
0.004519 -0.390458 0.056039 0 0 255
-0.431637 0.040391 0.489051 204 51 127
0.362978 -0.362562 0.334950 76 0 153
0.024059 0.488528 -0.078087 153 0 76
-0.092278 0.131448 0.527688 76 0 153
-0.028242 0.401595 0.493734 127 127 0
-0.052957 -0.461292 0.315003 76 0 153
-0.295753 0.163335 -0.161035 255 0 0
0.347519 -0.612847 -0.554142 127 0 127
0.233097 -0.238815 -0.515505 153 76 0
0.443472 -0.411423 0.081427 204 51 127
-0.419416 0.718173 0.022257 0 0 255
0.144034 -0.573184 -0.554142 127 0 127
-0.279512 0.488528 -0.199136 153 0 76
-0.404846 0.545108 0.527688 204 51 127
-0.419416 0.134092 0.480821 0 0 255
0.462790 0.169516 0.098066 204 51 127
-0.419416 0.296419 -0.297415 0 0 255
-0.083361 -0.390458 0.175674 0 0 255
-0.432295 -0.278323 0.557227 153 76 0
0.465196 0.032339 0.527688 153 0 76
-0.419416 0.552622 -0.030959 0 0 255
0.013683 0.413390 0.566324 127 127 0
0.104247 -0.394824 -0.348079 204 51 127
-0.414125 -0.445349 0.566324 153 76 0
-0.313165 -0.294871 -0.108610 153 0 76
0.339355 -0.425875 0.336731 76 0 153
0.070072 0.691945 0.527688 0 255 0
-0.013971 0.462770 0.526685 127 127 0
-0.182808 0.462770 -0.332971 76 153 0
0.079373 0.028672 0.566324 76 0 153
0.337221 -0.418484 -0.006692 76 0 153
-0.012046 -0.062696 0.527688 153 76 0
0.236526 0.477275 0.566324 127 127 0
-0.356154 -0.461292 0.296644 76 0 153
-0.338923 -0.249903 -0.107108 153 0 76
0.222498 0.244363 0.501930 76 0 153
0.462790 -0.139867 0.324453 204 51 127
0.462790 -0.352303 0.348171 204 51 127
-0.343956 -0.757508 -0.551086 127 0 127
-0.187297 0.332999 -0.502626 153 76 0
0.150994 0.498187 0.116026 153 0 76
-0.098373 -0.498494 0.489051 0 0 255
0.443472 0.420436 0.299975 204 51 127
0.362978 -0.128664 0.075336 76 0 153
-0.419416 -0.430702 0.258670 0 0 255
0.192105 -0.461292 -0.245346 76 0 153
0.452815 -0.525687 -0.092440 127 127 0
-0.432295 -0.187744 0.532166 153 76 0
0.106818 -0.251315 -0.502626 153 76 0
-0.256914 -0.461292 0.149609 76 0 153
0.165064 -0.425875 -0.332892 204 51 127
-0.438734 0.125775 -0.080814 0 0 255
0.462790 -0.155187 -0.317102 204 51 127
0.465546 0.548350 0.527688 153 0 76
0.175142 0.327709 0.566324 76 0 153
-0.202948 -0.390458 0.330566 0 0 255
0.230773 0.005568 0.532658 153 76 0
0.361901 -0.425875 0.488495 76 0 153
0.259439 -0.461292 -0.124439 76 0 153
-0.049563 0.163335 -0.040080 255 0 0
-0.438734 -0.329578 -0.239552 0 0 255
-0.237917 0.498187 0.457808 153 0 76
-0.257775 -0.306911 0.501930 153 76 0
0.337221 -0.357418 -0.049463 76 0 153
-0.134291 -0.461292 -0.151377 76 0 153
-0.103897 -0.196259 0.566324 153 76 0
0.310684 -0.461292 -0.111266 76 0 153
0.404681 0.452036 0.527688 127 127 0
-0.230556 0.488528 0.304394 153 0 76
-0.214909 0.578938 0.566324 127 127 0
0.024667 -0.390458 -0.283823 0 0 255
-0.419416 0.546384 -0.457433 0 0 255
0.219065 -0.400118 -0.180343 0 0 255
-0.438734 -0.473835 -0.354134 0 0 255
-0.419416 0.187805 -0.403994 0 0 255
-0.419416 0.001917 0.123556 0 0 255
0.189991 0.169159 -0.348079 0 0 255
-0.438734 0.599959 -0.165858 0 0 255
0.418460 0.505987 -0.502626 153 76 0
-0.173300 0.488528 -0.180167 153 0 76
-0.239765 -0.129893 -0.322321 204 51 127
-0.225736 -0.756088 0.347383 76 153 0
-0.409107 0.640452 0.489051 204 51 127
0.462790 -0.550236 -0.207426 127 127 0
0.124532 0.100365 0.527688 76 0 153
-0.113339 0.488528 0.064518 153 0 76
0.362978 0.239328 0.198812 204 51 127
-0.019247 -0.632816 0.366701 76 153 0
-0.259138 -0.217507 0.527688 153 76 0
-0.338923 -0.159367 0.493541 153 0 76
-0.451613 0.724710 0.514270 204 51 127
-0.268871 0.034433 -0.515505 153 76 0
0.443472 0.371050 0.115027 204 51 127
0.120446 -0.035483 -0.502626 153 76 0
0.443472 0.111022 -0.509467 204 51 127
0.337221 -0.276707 -0.290249 76 0 153
-0.419416 0.246581 0.309516 0 0 255
0.427081 -0.288023 0.489051 153 0 76
0.362978 -0.238161 -0.041112 76 0 153
-0.315397 0.617317 0.498111 127 0 127
0.337432 -0.228457 0.527688 76 0 153
-0.294642 0.153676 0.394538 255 0 0
-0.145247 0.577617 -0.502626 153 76 0
0.353809 0.375398 -0.515505 153 76 0
0.462790 0.696131 -0.220770 204 51 127
0.008530 -0.461292 -0.167623 76 0 153
0.156276 -0.314771 0.527688 153 76 0
0.023664 0.153676 -0.253870 255 0 0
0.309833 0.488528 -0.151486 153 0 76
0.080516 0.163335 0.283696 255 0 0
-0.313165 0.537252 -0.115743 127 0 127
0.337221 -0.296734 0.001112 76 0 153
0.381609 -0.109363 0.566324 153 76 0
0.006759 0.178410 0.566324 76 0 153
0.462790 -0.544983 0.065802 127 127 0
0.297666 -0.390458 0.211430 0 0 255
-0.201892 -0.461292 0.013108 76 0 153
-0.338923 0.516512 -0.343580 127 0 127
-0.313165 0.225581 -0.303084 153 0 76
0.414582 -0.531916 0.347383 76 153 0
0.154208 0.415716 0.527688 127 127 0
-0.332251 0.510286 -0.515505 153 76 0
-0.038958 -0.708935 0.366701 76 153 0
-0.265224 0.581900 -0.553995 127 127 0
-0.306809 0.163335 -0.255595 255 0 0
0.337221 0.239762 -0.200313 204 51 127
0.049771 -0.390458 0.107739 0 0 255
-0.135548 0.129252 -0.348079 0 0 255
-0.338923 -0.208683 0.225736 153 0 76
-0.109304 0.517983 -0.502626 153 76 0
0.406911 -0.705973 -0.515505 127 0 127
0.419105 -0.035844 0.566324 153 76 0
0.405623 0.713235 0.566324 127 127 0
-0.000239 -0.487050 0.215179 76 0 153
-0.287049 0.701188 -0.554142 127 127 0
-0.173246 -0.461292 0.137975 76 0 153
0.271306 0.306997 0.566324 76 0 153
0.243532 -0.400118 -0.310986 0 0 255
0.443472 0.085764 0.194322 204 51 127
0.408560 -0.461292 -0.378450 76 0 153
-0.016466 0.163335 0.373348 255 0 0
0.121848 -0.103094 -0.348079 204 51 127
-0.211698 0.375286 -0.502626 153 76 0
-0.338923 -0.117046 -0.253215 153 0 76
0.323571 0.491328 0.566324 127 127 0
-0.205917 -0.461292 -0.217195 76 0 153
-0.338923 0.129579 -0.338695 153 0 76
0.103934 0.575094 0.527688 127 127 0
-0.438734 0.060755 0.432241 0 0 255
0.136390 0.325328 0.527688 127 127 0
-0.325273 0.485068 0.566324 127 127 0
-0.089674 -0.627978 0.347383 76 153 0
-0.419416 -0.378728 -0.083151 0 0 255
0.117692 0.600505 -0.515505 153 76 0
0.184786 0.498187 0.398213 153 0 76
0.443472 -0.414248 -0.258700 204 51 127
-0.348550 0.017629 0.527688 255 0 0
-0.211896 -0.461292 0.377414 76 0 153
-0.086713 -0.390458 0.036292 0 0 255
0.443472 -0.207888 0.240701 204 51 127
-0.026519 0.327196 0.489051 127 127 0
0.375072 -0.461292 0.177956 76 0 153
-0.374340 0.300662 0.493991 204 51 127
0.102602 -0.377608 -0.515505 153 76 0
-0.394576 -0.506369 0.550757 153 76 0
0.123153 -0.525482 -0.515505 127 0 127
-0.313165 -0.088901 0.327726 153 0 76
0.167795 0.498187 -0.011099 153 0 76
0.163188 0.391446 -0.502626 153 76 0
0.443472 -0.570823 -0.451863 127 127 0
-0.438734 -0.648333 0.313892 0 127 127
-0.402490 -0.533910 -0.554142 127 0 127
0.205218 0.324322 0.501519 127 127 0
-0.253273 -0.479194 0.527688 0 0 255
-0.019100 0.679569 -0.554142 127 127 0
0.398509 -0.281974 -0.515505 153 76 0
-0.148416 0.488528 0.106666 153 0 76
0.067301 -0.390458 -0.008802 0 0 255
0.077060 0.692060 -0.515505 127 127 0
0.121086 -0.461292 0.240069 76 0 153
0.243733 -0.461292 0.219262 76 0 153
0.021657 -0.400118 0.478718 0 0 255
-0.270380 0.421789 0.527688 127 127 0
0.310060 0.637052 -0.554142 127 127 0
0.156234 -0.390458 0.250872 0 0 255
-0.438734 0.639913 0.304175 0 0 255
-0.114774 -0.023474 0.527688 153 76 0
-0.395997 0.071412 0.527688 204 51 127
-0.024735 -0.383827 0.566324 153 76 0
-0.247386 0.163335 -0.170223 255 0 0
-0.087153 0.428066 0.527688 127 127 0
0.361993 0.127918 0.144904 204 51 127
0.283577 -0.461292 0.159989 76 0 153
0.462790 0.333257 0.430308 204 51 127
0.443472 0.445688 0.020774 204 51 127
0.362978 -0.322737 0.234706 76 0 153
0.443472 -0.642224 -0.263939 127 127 0
-0.438734 0.234849 -0.449053 0 0 255
0.286159 0.162592 0.566324 76 0 153
0.103622 0.662721 -0.554142 127 127 0
-0.438734 0.191132 0.396672 0 0 255
0.235884 -0.704005 0.347383 76 153 0
-0.386484 -0.055581 0.527688 153 76 0
0.172180 0.153676 0.252054 255 0 0
-0.438734 -0.409798 -0.202103 0 0 255
-0.313591 0.127918 0.502959 153 0 76
0.214947 0.383759 0.566324 127 127 0
0.066073 0.488528 0.213024 153 0 76
0.339205 -0.290891 -0.348079 76 0 153
0.349809 0.127918 0.378282 204 51 127
0.362978 -0.109939 -0.242925 76 0 153
0.458003 0.335738 -0.554141 204 51 127
0.462790 0.111778 -0.360010 204 51 127
-0.139015 -0.390458 -0.082878 0 0 255
-0.075869 -0.563369 -0.554142 127 0 127
0.322974 0.552982 -0.502626 153 76 0
0.388907 -0.461292 -0.163790 76 0 153
-0.212521 -0.264276 -0.515505 153 76 0
-0.320730 0.462770 -0.089078 127 0 127
-0.091539 0.589587 0.566324 127 127 0
-0.313165 -0.212324 -0.015560 153 0 76
-0.438734 -0.315248 0.190308 0 0 255
0.133709 -0.461292 -0.091754 76 0 153
-0.161017 -0.487050 0.315049 76 0 153
0.066828 -0.078145 0.521722 153 76 0
-0.111994 0.498187 0.164361 153 0 76
0.275898 -0.648557 0.347383 76 153 0
0.337221 -0.297999 -0.196289 76 0 153
-0.290863 -0.487050 -0.225791 76 0 153
0.230916 -0.236082 0.527688 153 76 0
-0.438734 -0.637703 0.084456 0 127 127
-0.382446 -0.360686 0.566324 153 76 0
0.287418 -0.229668 0.527688 153 76 0
-0.419416 0.733727 0.204714 0 0 255
-0.419416 -0.287369 0.065461 0 0 255
0.462790 -0.625800 0.171226 127 127 0
-0.039999 -0.078145 -0.335785 204 51 127
-0.266601 -0.103625 -0.515505 153 76 0
-0.211761 -0.361531 -0.322321 204 51 127
0.115503 -0.461292 -0.014076 76 0 153
0.229148 -0.461292 -0.049637 76 0 153
-0.419416 -0.181333 -0.436738 0 0 255
0.362978 -0.157076 -0.175763 76 0 153
-0.269883 -0.661968 -0.554142 127 0 127
-0.419416 -0.378688 -0.280041 0 0 255
-0.397829 -0.487050 0.019759 76 0 153
0.330294 -0.461292 -0.205667 76 0 153
-0.419416 -0.696768 0.110716 0 127 127
0.003656 -0.004838 0.527688 153 76 0
0.399492 -0.667050 -0.554142 127 0 127
-0.074013 -0.172172 -0.515505 153 76 0
0.165917 -0.718906 -0.515505 127 0 127
-0.199771 0.248645 0.566324 76 0 153
0.443472 0.035544 -0.015831 204 51 127
-0.195762 -0.461292 0.065238 76 0 153
-0.438734 -0.564715 -0.545458 0 127 127
0.402695 -0.182151 -0.502626 153 76 0
-0.374738 0.015854 -0.502626 153 76 0
0.250952 -0.034110 0.566324 153 76 0
-0.419416 -0.601795 -0.001098 0 127 127
0.073392 -0.701383 0.347383 76 153 0
-0.232532 -0.373547 0.566324 153 76 0
0.463464 -0.366606 0.527688 153 0 76
-0.419416 -0.749506 -0.024488 0 127 127
-0.291315 0.180428 0.501930 76 0 153
0.275158 -0.487050 -0.203837 76 0 153
0.339242 -0.487050 -0.291981 76 0 153
-0.313165 0.610591 0.387042 127 0 127
0.450878 -0.689091 0.366701 127 127 0
0.462790 0.156377 0.001328 204 51 127
-0.419416 0.198826 -0.356915 0 0 255
0.301991 -0.276075 0.527688 153 76 0
-0.226753 -0.400118 -0.133779 0 0 255
0.246852 -0.049548 -0.515505 153 76 0
0.187011 0.505482 -0.348079 76 153 0
0.317295 0.613991 -0.502626 153 76 0
0.443472 -0.081391 0.359522 204 51 127
0.443472 0.158790 0.344761 204 51 127
-0.170462 0.389275 0.489051 127 127 0
-0.391922 0.664954 0.527688 204 51 127
-0.313165 -0.362609 -0.128167 153 0 76
0.157291 -0.487050 0.370258 76 0 153
-0.419416 0.731557 -0.466890 0 0 255
0.045410 -0.183654 -0.502626 153 76 0
0.462790 -0.179748 -0.507325 204 51 127
-0.376999 0.372617 0.543952 127 127 0
-0.178198 -0.406460 0.566324 153 76 0
-0.357632 -0.487050 -0.187291 76 0 153
-0.181949 0.540738 -0.322321 76 153 0
-0.271736 0.238735 -0.322321 0 0 255
0.140126 0.170882 -0.348079 0 0 255
-0.082731 0.163335 0.161033 255 0 0
0.420383 0.030861 0.566324 76 0 153
0.323748 -0.408195 0.527688 153 76 0
-0.294514 0.331309 -0.515505 153 76 0
-0.338923 0.226558 0.239907 153 0 76
0.105654 0.498187 0.051114 153 0 76
0.035901 -0.487050 0.432814 76 0 153
0.423174 -0.515728 -0.515505 127 0 127
0.186524 -0.461292 -0.147536 76 0 153
-0.205451 -0.487050 0.291370 76 0 153
0.298973 -0.461292 -0.005992 76 0 153
0.184343 0.149217 0.566324 76 0 153
0.414997 0.736447 -0.550072 127 127 0
-0.130946 -0.573091 -0.554142 127 0 127
0.358585 0.659173 0.514267 0 255 0
-0.113585 0.240315 0.527688 76 0 153
0.337221 0.241436 0.093446 204 51 127
0.038703 0.028181 0.527688 76 0 153
0.030496 0.488528 0.315989 153 0 76
0.330050 -0.493986 -0.515505 127 0 127
0.462790 0.288337 -0.038499 204 51 127
-0.313165 -0.209170 -0.124074 153 0 76
-0.419416 0.342391 -0.379002 0 0 255
-0.438734 -0.351841 0.428755 0 0 255
0.383732 -0.454853 -0.540537 127 0 127
-0.322336 -0.461292 0.411174 76 0 153
0.072566 -0.479176 0.527688 153 76 0
-0.084302 -0.390458 -0.015258 0 0 255
0.345457 0.141419 0.527688 76 0 153
-0.417196 -0.392646 0.489051 204 51 127
-0.191654 0.488528 0.152004 153 0 76
-0.059152 0.064148 0.527688 76 0 153
0.337221 -0.152420 -0.044404 76 0 153
0.269827 -0.425339 0.527688 153 76 0
-0.334411 0.092307 -0.515505 153 76 0
-0.419416 0.669159 -0.222480 0 0 255
-0.006440 0.163335 -0.122172 255 0 0
-0.438734 0.112008 -0.412657 0 0 255
0.187765 -0.487050 -0.040294 76 0 153
-0.056765 -0.286317 0.527688 153 76 0
-0.432295 0.376318 0.536635 127 127 0
-0.374459 -0.461292 0.237713 76 0 153
0.462790 0.657889 0.328103 204 51 127
0.400111 -0.111933 0.489051 153 0 76
0.189314 0.498187 -0.106250 153 0 76
0.337221 0.226734 0.011679 204 51 127
-0.287863 0.473588 -0.502626 153 76 0
-0.300371 0.701267 0.566324 127 127 0
-0.438734 0.162154 -0.264969 0 0 255
0.337221 -0.251662 -0.165948 76 0 153
-0.023428 -0.461292 -0.306459 76 0 153
0.462790 -0.290288 -0.080954 204 51 127
-0.256502 0.736447 -0.525294 127 127 0
0.443472 -0.060390 -0.126462 204 51 127
-0.135836 -0.579476 0.347383 76 153 0
0.426936 -0.487050 -0.009809 76 0 153
0.022694 0.175756 -0.348079 0 0 255
0.443472 -0.299289 0.110145 204 51 127
0.462790 0.679176 0.167692 204 51 127
-0.254901 0.695274 0.527688 0 255 0
-0.438734 -0.465845 -0.400594 0 0 255
-0.313165 -0.349151 0.058816 153 0 76
-0.419416 -0.309408 -0.358979 0 0 255
0.443472 -0.173346 -0.189766 204 51 127
-0.086994 0.395053 0.566324 127 127 0
0.172863 0.038083 -0.502626 153 76 0
0.410276 -0.487050 0.434166 76 0 153
-0.313165 -0.416133 0.042573 153 0 76
0.337221 0.566690 0.428470 0 127 127
-0.438734 -0.093429 0.108927 0 0 255
-0.005821 -0.390458 -0.184574 0 0 255
0.071167 -0.487050 0.162159 76 0 153
0.443472 -0.515009 0.292597 204 51 127
-0.338923 0.174887 -0.221184 153 0 76
0.341934 0.377624 0.489051 127 127 0
0.132967 0.544776 0.566324 127 127 0
-0.380872 -0.755103 0.347383 76 153 0
-0.374340 0.217543 0.517162 204 51 127
0.073512 -0.138057 -0.322321 204 51 127
-0.313165 -0.137796 0.266059 153 0 76
0.411317 -0.250821 0.527688 153 76 0
0.443472 0.244672 -0.406416 204 51 127
0.196045 0.516514 0.527688 127 127 0
0.174412 0.005568 0.546571 153 76 0
0.443472 -0.001362 0.383123 204 51 127
-0.158078 0.256597 -0.502626 153 76 0
0.443472 -0.698181 -0.377207 127 127 0
0.127422 0.153676 0.011162 255 0 0
0.362978 0.177957 0.440134 204 51 127
0.085462 -0.504951 -0.554142 127 0 127
-0.047118 -0.009298 0.489051 255 0 0
-0.301589 0.345728 0.489051 127 127 0
-0.398268 -0.461292 -0.444801 76 0 153
-0.030648 -0.487050 -0.241738 76 0 153
0.362978 0.161523 -0.107174 204 51 127
-0.118776 0.716764 0.566324 127 127 0
-0.092584 -0.297273 0.566324 153 76 0
-0.438734 -0.442438 0.142608 0 0 255
0.359384 -0.078145 -0.204224 76 0 153
0.264702 -0.604542 -0.554142 127 0 127
0.450424 -0.368360 -0.554141 204 51 127
0.390429 0.257614 0.566324 76 0 153
0.030830 -0.461292 -0.107071 76 0 153
-0.398780 0.322370 0.527688 76 0 153
0.462790 0.575606 0.443002 204 51 127
-0.438734 -0.446419 0.442484 0 0 255
0.057921 -0.390458 0.251460 0 0 255
0.091941 -0.487050 -0.294011 76 0 153
-0.053489 -0.223518 0.566324 153 76 0
0.321234 -0.480944 0.566324 153 76 0
-0.262793 0.550145 0.566324 127 127 0
0.362978 -0.091304 0.202679 76 0 153
-0.378340 -0.487050 -0.501847 76 0 153
-0.154022 -0.699352 -0.515505 127 0 127
-0.451613 -0.329243 0.512831 204 51 127
0.171502 -0.556078 0.347383 76 153 0
0.220402 0.033460 -0.502626 153 76 0
-0.419416 0.682708 0.074506 0 0 255
0.443472 0.029330 0.345700 204 51 127
0.321689 -0.692452 0.347383 76 153 0
-0.193662 -0.454826 0.527688 0 0 255
0.337221 0.237373 0.359608 204 51 127
0.246213 -0.390458 0.282656 0 0 255
-0.161028 -0.166000 -0.322321 204 51 127
-0.234945 -0.525679 0.489051 0 0 255
-0.007723 -0.198297 -0.515505 153 76 0
-0.419416 0.629619 -0.493228 0 0 255
0.112670 -0.400118 0.388502 0 0 255
0.443472 0.250495 0.202023 204 51 127
-0.338923 0.510660 0.453821 127 0 127
0.172844 0.693191 0.527688 127 127 0
0.362978 -0.247911 0.268711 76 0 153
0.129555 -0.270326 0.566324 153 76 0
0.114667 -0.400118 -0.195861 0 0 255
-0.438734 0.467347 -0.092217 0 0 255
0.089956 0.609328 -0.554142 127 127 0
-0.419416 -0.162868 0.153620 0 0 255
-0.337601 0.509842 0.527688 127 0 127
0.398396 0.307380 0.520324 153 0 76
0.443472 0.255596 0.397340 204 51 127
0.462790 0.426409 0.198552 204 51 127
0.239143 -0.487050 0.298670 76 0 153
0.194784 -0.487050 0.047505 76 0 153
-0.351379 -0.216750 0.566324 153 76 0
0.419542 0.578285 -0.502626 153 76 0
0.362978 0.274411 -0.288531 204 51 127
0.186406 -0.390458 0.183997 0 0 255
0.337221 -0.328412 -0.272977 76 0 153
-0.338923 -0.368309 0.214524 153 0 76
0.337221 -0.349781 -0.335692 76 0 153
0.443472 0.701282 0.030900 204 51 127
-0.095789 -0.461292 -0.059927 76 0 153
0.443472 -0.329519 -0.045295 204 51 127
-0.002792 -0.487050 0.305088 76 0 153
-0.003325 -0.627163 -0.515505 127 0 127
-0.438734 -0.089076 0.440298 0 0 255
-0.189483 -0.132139 -0.348079 204 51 127
-0.300083 0.498187 -0.137195 153 0 76
0.260006 -0.461292 0.266093 76 0 153
0.122778 0.717129 0.533938 127 127 0
-0.354885 0.422871 -0.502626 153 76 0
-0.423538 -0.116433 -0.554141 0 0 255
-0.096464 0.165731 -0.502626 153 76 0
-0.419416 -0.345296 -0.189286 0 0 255
0.462790 -0.438028 0.460718 204 51 127
0.018804 -0.487050 0.382935 76 0 153
-0.085927 -0.111900 0.527688 153 76 0
0.462790 0.097214 -0.104910 204 51 127
-0.055527 0.539584 0.566324 127 127 0
0.028308 -0.487050 0.064653 76 0 153
-0.051665 0.595359 0.501930 127 127 0
0.331015 0.094727 -0.502626 153 76 0
0.443472 0.540434 -0.333990 204 51 127
-0.234105 -0.461292 0.428041 76 0 153
0.202815 -0.324227 0.566324 153 76 0
-0.438734 -0.099997 -0.490593 0 0 255
0.462790 -0.105376 0.132500 204 51 127
0.198237 -0.199063 0.501930 153 76 0
0.124133 -0.400118 -0.051558 0 0 255
-0.313165 -0.313101 0.391630 153 0 76
-0.358451 0.167236 -0.515505 153 76 0
0.423623 -0.121496 0.527688 153 76 0
0.436959 -0.411917 0.527688 153 0 76
0.152015 0.625104 0.566324 127 127 0
-0.182779 -0.159520 0.527688 153 76 0
0.462790 -0.648137 -0.489121 127 127 0
-0.419416 0.436110 0.012454 0 0 255
0.462790 0.355890 -0.004621 204 51 127
0.443472 -0.400483 -0.037067 204 51 127
-0.138060 0.476482 -0.515505 153 76 0
0.462790 -0.211835 -0.259721 204 51 127
-0.438734 0.308572 -0.509044 0 0 255
0.262881 -0.400118 -0.210482 0 0 255
-0.419416 -0.084861 0.241576 0 0 255
-0.082703 -0.400118 0.227971 0 0 255
0.043966 0.376304 0.489051 127 127 0
0.462790 -0.430156 -0.456105 204 51 127
-0.411223 0.131032 0.527688 204 51 127
-0.078515 0.087269 -0.502626 153 76 0
0.199797 -0.409222 0.501930 153 76 0
0.463267 0.241630 0.527688 153 0 76
0.337221 0.606545 0.464472 0 127 127
0.176735 -0.487050 -0.209217 76 0 153
0.057814 -0.390458 0.321310 0 0 255
0.224228 0.076185 0.527688 76 0 153
-0.021768 -0.461292 0.126959 76 0 153
0.236041 0.451453 0.527688 127 127 0
0.462790 0.612745 -0.549633 204 51 127
0.337221 0.198230 0.323491 204 51 127
-0.338923 -0.288000 0.111564 153 0 76
0.395850 -0.588379 -0.554142 127 0 127
-0.419416 -0.021577 -0.304243 0 0 255
-0.268527 -0.487050 0.447627 76 0 153
-0.419416 -0.119967 0.207675 0 0 255
0.195948 -0.570265 -0.554142 127 0 127
-0.084053 0.488528 -0.199097 153 0 76
-0.312716 -0.500964 -0.554142 127 0 127
-0.313705 -0.487050 -0.139329 76 0 153
0.200555 0.602673 0.566324 127 127 0
0.362978 -0.186830 -0.221098 76 0 153
-0.419416 -0.118717 -0.126996 0 0 255
0.376161 -0.362305 -0.502626 153 76 0
-0.438734 -0.190409 -0.212031 0 0 255
0.177951 0.606050 -0.322321 76 153 0
0.224314 -0.425875 -0.345626 204 51 127
0.350319 -0.498567 0.489051 0 0 255
-0.259457 0.330908 0.527688 76 0 153
-0.240735 -0.283814 -0.322321 204 51 127
-0.438734 0.224735 -0.200522 0 0 255
0.462790 0.215915 0.359361 204 51 127
-0.069599 0.163335 -0.116979 255 0 0
0.273700 -0.461292 0.415440 76 0 153
0.337221 0.605034 0.081530 0 127 127
-0.325310 0.726444 -0.554142 127 127 0
-0.438734 -0.389383 -0.451060 0 0 255
-0.333943 0.282465 0.201371 153 0 76
-0.419416 0.559766 -0.184453 0 0 255
0.214778 -0.415842 0.566324 153 76 0
0.279277 -0.461292 -0.051516 76 0 153
0.443472 -0.415438 0.253445 204 51 127
-0.338923 -0.290146 0.209806 153 0 76
-0.083216 -0.517185 -0.515505 127 0 127
0.060581 0.232109 0.527688 76 0 153
0.036422 -0.486424 0.489051 76 0 153
-0.313165 -0.163439 0.190374 153 0 76
0.353202 0.697810 -0.457689 76 0 153
0.462790 -0.701966 -0.128366 127 127 0
0.207845 0.659173 0.522893 0 255 0
0.337221 0.248053 0.473490 204 51 127
-0.297383 -0.179840 0.527688 153 76 0
-0.438734 -0.383126 0.023703 0 0 255
0.249677 -0.164397 0.566324 153 76 0
0.086134 -0.169536 0.527688 153 76 0
0.462790 -0.495123 0.393899 204 51 127
-0.332121 -0.487050 0.091442 76 0 153
0.354623 0.282465 0.186461 204 51 127
0.318200 0.660908 0.566324 127 127 0
0.006370 0.163335 -0.165969 255 0 0
-0.250184 -0.461292 -0.000620 76 0 153
0.337883 -0.461292 0.239039 76 0 153
0.134753 0.498187 0.250306 153 0 76
-0.338923 -0.324844 -0.141222 153 0 76
-0.003765 -0.403634 0.527688 153 76 0
-0.419416 0.353382 0.163626 0 0 255
-0.438734 -0.696278 -0.478366 0 127 127
-0.291052 -0.136951 -0.348079 204 51 127
0.033618 0.153676 0.136368 255 0 0
-0.419416 -0.217486 -0.005131 0 0 255
0.443472 0.425397 -0.278448 204 51 127
0.300733 -0.390458 0.303079 0 0 255
0.243001 0.498187 0.378476 153 0 76
-0.097572 -0.464277 0.527688 0 0 255
0.235162 0.130887 -0.322321 0 0 255
0.348916 0.462770 0.180965 0 127 127
-0.092002 -0.669337 -0.554142 127 0 127
-0.028803 0.120947 0.527688 76 0 153
-0.129577 -0.230226 -0.322321 204 51 127
0.421549 0.546267 0.489051 153 0 76
-0.438734 0.529622 0.262048 0 0 255
-0.236512 -0.400118 -0.302899 0 0 255
0.028112 0.215805 -0.322321 0 0 255
-0.002564 -0.525687 0.493629 0 0 255
0.318343 0.488528 0.142823 153 0 76
0.011102 0.311363 0.527688 76 0 153
-0.313165 -0.296225 -0.218182 153 0 76
0.043577 -0.487050 -0.463728 76 0 153
0.312858 -0.400118 0.123182 0 0 255
-0.000616 -0.034931 0.566324 153 76 0
0.443472 0.040096 0.267993 204 51 127
-0.189784 0.472291 0.527688 127 127 0
-0.197114 0.701001 -0.554142 127 127 0
0.367166 -0.461292 0.375361 76 0 153
-0.438734 -0.401347 0.229831 0 0 255
-0.121778 0.462770 0.510471 127 127 0
0.132170 0.462770 0.517253 127 127 0
-0.165235 -0.102404 0.501930 153 76 0
0.443472 -0.076558 -0.518715 204 51 127
0.286603 0.534916 0.527688 127 127 0
-0.313165 0.518524 0.219283 127 0 127
-0.222103 0.734469 0.527688 0 255 0
0.301370 -0.400118 -0.319985 0 0 255
-0.338923 -0.149593 -0.215981 153 0 76
0.362978 0.130226 0.475433 204 51 127
0.337221 -0.357162 0.385469 76 0 153
-0.390585 -0.441999 0.527688 204 51 127
0.252094 -0.222908 0.566324 153 76 0
-0.093810 0.510400 0.566324 127 127 0
-0.438734 0.518397 -0.084163 0 0 255
0.443472 -0.330374 0.216772 204 51 127
0.337221 0.172628 0.093238 204 51 127
-0.121130 0.678764 0.527688 127 127 0
0.475669 0.708604 0.511212 153 0 76
0.049722 0.150679 0.501930 76 0 153
-0.227564 0.650045 -0.502626 153 76 0
-0.389747 0.695940 0.364173 76 0 153
-0.419416 0.548129 0.188497 0 0 255
-0.040728 -0.179566 0.566324 153 76 0
-0.344414 -0.264394 -0.515505 0 255 0
0.035807 -0.224522 0.527688 153 76 0
0.097724 0.325205 -0.502626 153 76 0
0.462790 -0.054348 0.146092 204 51 127
-0.438734 -0.697531 -0.217108 0 127 127
0.203959 0.567755 -0.348079 76 153 0
0.361296 -0.189695 0.566324 153 76 0
-0.207642 -0.390458 0.430992 0 0 255
0.462790 0.403415 0.474937 204 51 127
-0.419416 -0.640288 -0.351674 0 127 127
0.132735 -0.723178 0.347383 76 153 0
-0.082831 -0.738411 0.366701 76 153 0
0.462790 -0.471264 -0.292661 204 51 127
-0.373789 0.240289 0.566324 76 0 153
-0.171858 0.153676 -0.307295 255 0 0
-0.343068 -0.487050 0.025323 76 0 153
-0.438734 -0.574964 0.221508 0 127 127
-0.438734 -0.072646 -0.354073 0 0 255
-0.003057 0.563004 -0.348079 76 153 0
0.301198 0.047004 0.527688 76 0 153
0.462790 0.246239 -0.508080 204 51 127
0.443472 0.277758 0.117623 204 51 127
-0.438734 -0.728248 0.164553 0 127 127
-0.338923 -0.419084 0.268436 153 0 76
-0.313165 0.187495 -0.093958 153 0 76
0.462790 0.497542 -0.106770 204 51 127
-0.295274 0.471789 0.527688 127 127 0
-0.419416 0.307620 -0.006916 0 0 255
0.428772 -0.487050 -0.344474 76 0 153
-0.419416 0.538645 -0.515248 0 0 255
0.229762 -0.461292 0.468852 76 0 153
-0.241391 -0.390458 -0.091992 0 0 255
-0.137447 0.498187 -0.153103 153 0 76
0.443472 0.579669 0.126893 204 51 127
-0.024317 0.714611 -0.515505 127 127 0
0.443472 0.074150 -0.417132 204 51 127
-0.404906 0.477808 0.527688 204 51 127
0.362978 -0.267443 0.450832 76 0 153
-0.313165 0.239815 -0.239085 153 0 76
0.443472 0.230176 -0.205111 204 51 127
0.271838 0.680108 0.489051 0 255 0
-0.315164 0.462770 -0.179317 127 0 127
-0.193043 -0.689148 0.347383 76 153 0
-0.087581 0.363989 0.527688 127 127 0
0.172146 -0.382313 0.527688 153 76 0
-0.041155 0.251533 -0.515505 153 76 0
-0.247635 0.488528 0.224399 153 0 76
0.290877 0.538046 -0.322321 76 153 0
-0.258595 -0.478693 -0.554142 127 0 127
0.362978 0.613842 -0.015079 0 127 127
-0.310395 -0.036288 0.525652 255 0 0
-0.252631 -0.461292 -0.486965 76 0 153
0.146862 0.153676 0.172747 255 0 0
-0.419416 0.608481 0.225941 0 0 255
-0.006966 -0.487050 -0.004537 76 0 153
0.462790 0.190730 -0.080909 204 51 127
-0.438734 0.625283 -0.079400 0 0 255
0.462790 -0.247188 0.340050 204 51 127
-0.311126 -0.461292 -0.465142 76 0 153
0.462790 -0.611594 -0.401215 127 127 0
0.316888 0.488528 0.463448 153 0 76
-0.338923 -0.375734 -0.052563 153 0 76
0.462790 0.648823 0.395718 204 51 127
0.333110 -0.003129 -0.515505 153 76 0
-0.099731 -0.487050 -0.212646 76 0 153
0.362978 -0.408089 -0.312243 76 0 153
0.319165 0.498187 -0.265152 153 0 76
0.462790 -0.662602 0.221760 127 127 0
-0.297286 0.543112 0.501930 127 127 0
0.003442 0.711394 0.489051 0 255 0
-0.419416 0.704969 -0.144329 0 0 255
-0.296852 0.372617 0.535295 127 127 0
0.045090 -0.276280 -0.322321 204 51 127
0.443472 0.680447 0.481645 153 0 76
0.443472 -0.533217 -0.411669 127 127 0
-0.147661 0.401595 0.525529 127 127 0
0.110877 -0.555225 0.366701 76 153 0
0.244765 0.625359 -0.554142 127 127 0
-0.338923 0.244946 0.381611 153 0 76
-0.204932 -0.487050 -0.302955 76 0 153
-0.223505 -0.390458 0.289605 0 0 255
-0.182849 -0.506369 0.561523 153 76 0
-0.313165 0.600143 0.263852 127 0 127
0.362978 0.170300 -0.337833 204 51 127
-0.190027 -0.390458 0.127554 0 0 255
-0.419416 -0.537735 -0.250731 0 127 127
0.337221 -0.117122 0.009257 76 0 153
-0.438734 0.019622 -0.536207 0 0 255
0.209918 0.153676 0.501607 255 0 0
0.441307 0.484016 0.527688 127 127 0
-0.151002 -0.390458 -0.297732 0 0 255
-0.186091 0.525907 0.527688 127 127 0
-0.369763 -0.087225 0.566324 153 76 0
0.358833 0.697810 -0.513514 76 0 153
0.443472 -0.541526 -0.340296 127 127 0
0.462790 0.281038 0.017912 204 51 127
0.337221 0.492615 -0.070937 0 127 127
0.443472 -0.383501 -0.399009 204 51 127
-0.451613 0.169392 0.506991 204 51 127
-0.227954 0.153676 -0.082893 255 0 0
0.348360 -0.363776 0.566324 153 76 0
-0.405180 -0.019760 0.489051 204 51 127
-0.419416 -0.522044 0.485190 0 0 255
-0.419416 0.387066 0.442826 0 0 255
-0.037980 0.153676 0.467259 255 0 0
-0.356963 -0.461292 -0.281677 76 0 153
-0.298697 0.498187 -0.053642 153 0 76
0.045532 -0.499222 -0.515505 127 0 127
0.443472 0.005951 0.207900 204 51 127
0.251773 0.500996 0.527688 127 127 0
-0.374340 -0.265371 0.492513 204 51 127
0.186853 0.711108 0.489051 0 255 0
0.337221 -0.244057 0.155638 76 0 153
0.112247 0.180780 -0.502626 153 76 0
0.443472 -0.437133 -0.118473 204 51 127
-0.338923 -0.360041 -0.237742 153 0 76
0.295846 -0.681472 -0.515505 127 0 127
0.268530 0.488528 0.244293 153 0 76
0.341947 -0.487050 -0.013956 76 0 153
-0.338923 -0.209474 -0.281025 153 0 76
0.180239 -0.453222 0.527688 0 0 255
0.131071 -0.201229 0.501930 153 76 0
0.323746 0.282646 0.566324 76 0 153
0.206269 -0.618142 0.366701 76 153 0
0.371426 -0.050429 0.566324 153 76 0
-0.091830 0.465950 0.566324 127 127 0
0.256910 0.574985 0.527688 127 127 0
0.443472 -0.356157 0.393309 204 51 127
0.393709 -0.461292 0.106630 76 0 153
0.462790 0.614246 -0.024317 204 51 127
-0.419416 0.699632 -0.386656 0 0 255
-0.438734 0.135608 -0.328299 0 0 255
-0.438734 0.406808 0.309950 0 0 255
-0.419416 0.522279 0.468230 0 0 255
-0.263062 -0.254861 0.566324 153 76 0
-0.393482 -0.461292 -0.172531 76 0 153
0.376241 0.654438 -0.554142 127 127 0
-0.313165 -0.183769 -0.176987 153 0 76
-0.111004 -0.487050 0.054965 76 0 153
0.337221 0.514922 0.236497 0 127 127
-0.394450 -0.757508 -0.552408 127 0 127
0.242158 -0.461292 -0.401359 76 0 153
0.443472 -0.166819 -0.410909 204 51 127
-0.307453 -0.225804 -0.322321 204 51 127
0.121108 -0.461292 0.084367 76 0 153
0.462790 -0.137954 0.194021 204 51 127
0.250297 -0.357797 -0.322321 204 51 127
0.462790 -0.661891 -0.542019 127 127 0
-0.252040 -0.400118 -0.001225 0 0 255
-0.438734 0.631659 0.102881 0 0 255
0.368111 0.209433 -0.515505 153 76 0
-0.109892 0.153676 0.317390 255 0 0
0.198600 0.359441 0.527688 127 127 0
0.362978 0.170408 0.159813 204 51 127
0.462790 -0.621896 0.267406 127 127 0
