ply
format ascii 1.0
element vertex 621
property float x
property float y
property float z
property float nx
property float ny
property float nz
property uchar red
property uchar green
property uchar blue
property float opacity
end_header
-0.306268 0.498187 0.326718 0.000000 -1.000000 -0.000000 255 255 255 1.000000
0.106072 -0.663759 -0.515505 0.000000 -0.000000 1.000000 240 204 140 1.000000
0.471872 0.073713 0.527688 0.000000 -0.000000 1.000000 25 1 3 1.000000
0.328088 0.317116 0.566324 0.000000 -0.000000 1.000000 33 5 8 1.000000
-0.137498 -0.471229 -0.554142 0.000000 -0.000000 1.000000 255 255 255 1.000000
-0.073152 0.153676 0.288161 0.000000 -1.000000 -0.000000 243 206 147 1.000000
-0.305401 0.109251 -0.502626 0.000000 0.000000 -1.000000 255 255 255 1.000000
-0.438734 -0.011575 -0.158392 -1.000000 0.000000 0.000000 47 19 22 1.000000
-0.321072 0.278624 -0.515505 0.000000 0.000000 -1.000000 248 207 149 1.000000
-0.419416 -0.180458 -0.094887 -1.000000 0.000000 0.000000 255 255 255 1.000000
-0.199971 -0.757508 0.362316 0.000000 -1.000000 -0.000000 242 205 146 1.000000
0.205260 0.488528 0.367398 0.000000 -1.000000 -0.000000 243 211 150 1.000000
0.362978 -0.323602 -0.179420 1.000000 0.000000 0.000000 245 204 136 1.000000
-0.419416 0.324471 -0.079049 1.000000 0.000000 0.000000 249 212 153 1.000000
-0.419416 0.632144 0.380254 1.000000 0.000000 0.000000 243 206 147 1.000000
0.039219 -0.245249 0.527688 0.000000 -0.000000 1.000000 243 207 143 1.000000
-0.250266 -0.487050 0.004106 0.000000 -1.000000 -0.000000 245 208 149 1.000000
-0.438734 0.699204 -0.357936 1.000000 0.000000 0.000000 255 255 255 1.000000
0.223369 0.298692 -0.502626 0.000000 -0.000000 1.000000 245 217 155 1.000000
0.199283 -0.400118 0.082451 0.000000 -1.000000 -0.000000 248 216 155 1.000000
-0.074754 -0.266334 0.527688 0.000000 -0.000000 1.000000 235 199 135 1.000000
-0.064873 0.163335 0.447533 0.000000 -1.000000 -0.000000 255 255 255 1.000000
0.178190 0.660615 0.489051 0.000000 0.000000 -1.000000 244 212 151 1.000000
-0.419416 -0.648367 -0.331462 -1.000000 0.000000 0.000000 255 255 255 1.000000
-0.313165 0.598446 0.293893 -1.000000 0.000000 0.000000 255 255 255 1.000000
-0.313165 -0.387716 0.084349 1.000000 0.000000 0.000000 245 208 149 1.000000
0.249651 0.163335 -0.113994 0.000000 -1.000000 -0.000000 255 255 255 1.000000
-0.264311 -0.278355 -0.348079 0.000000 0.000000 -1.000000 238 201 142 1.000000
-0.317675 -0.486805 0.489051 0.000000 -0.000000 1.000000 246 209 150 1.000000
-0.256641 -0.757508 -0.517638 0.000000 -1.000000 -0.000000 244 214 152 1.000000
0.037068 0.153676 0.097468 0.000000 1.000000 0.000000 255 255 255 1.000000
0.207838 0.434233 -0.502626 0.000000 -0.000000 1.000000 243 209 149 1.000000
-0.417522 -0.487050 0.238159 0.000000 1.000000 0.000000 245 202 145 1.000000
0.399443 0.240101 0.566324 0.000000 0.000000 -1.000000 255 255 255 1.000000
0.324256 0.523664 -0.322321 0.000000 -0.000000 1.000000 245 211 151 1.000000
-0.258175 -0.050390 0.566324 0.000000 0.000000 -1.000000 255 255 255 1.000000
0.099460 0.362882 0.489051 0.000000 -0.000000 1.000000 255 255 255 1.000000
0.125844 0.660009 0.527688 0.000000 -0.000000 1.000000 255 255 255 1.000000
0.174271 -0.224831 0.527688 0.000000 -0.000000 1.000000 240 204 140 1.000000
0.324981 0.212240 0.566324 0.000000 0.000000 -1.000000 255 255 255 1.000000
-0.013910 -0.487050 0.485988 0.000000 1.000000 0.000000 242 214 152 1.000000
-0.234464 0.699349 -0.515505 0.000000 0.000000 -1.000000 255 255 255 1.000000
-0.123559 -0.250649 -0.515505 0.000000 -0.000000 1.000000 255 255 255 1.000000
0.462790 0.612068 -0.148109 -1.000000 0.000000 0.000000 255 255 255 1.000000
0.405486 0.626560 0.489051 0.000000 0.000000 -1.000000 241 213 154 1.000000
0.001968 0.163335 0.205727 0.000000 -1.000000 -0.000000 255 255 255 1.000000
0.443472 0.073936 -0.120143 -1.000000 0.000000 0.000000 244 207 148 1.000000
0.112314 -0.044221 0.527688 0.000000 0.000000 -1.000000 38 10 13 1.000000
-0.313165 0.228091 0.476162 1.000000 0.000000 0.000000 242 206 142 1.000000
0.462790 -0.506798 0.239441 1.000000 0.000000 0.000000 26 0 1 1.000000
-0.211661 -0.452563 0.527688 0.000000 0.000000 -1.000000 31 3 6 1.000000
-0.419416 0.093252 0.112703 -1.000000 0.000000 0.000000 255 255 255 1.000000
-0.170682 -0.525687 0.524944 0.000000 -1.000000 -0.000000 43 19 21 1.000000
-0.215821 -0.461292 -0.250104 0.000000 1.000000 0.000000 242 205 146 1.000000
-0.438734 0.161114 0.233142 1.000000 0.000000 0.000000 255 255 255 1.000000
-0.201020 -0.461292 0.143207 0.000000 1.000000 0.000000 242 210 149 1.000000
-0.438734 0.262375 0.350334 1.000000 0.000000 0.000000 255 255 255 1.000000
0.462790 0.587483 0.080115 -1.000000 0.000000 0.000000 255 255 255 1.000000
0.063363 0.488528 0.422697 0.000000 -1.000000 -0.000000 246 204 142 1.000000
-0.419416 0.488395 0.289881 1.000000 0.000000 0.000000 243 211 150 1.000000
0.443472 0.696454 -0.203770 -1.000000 0.000000 0.000000 249 208 150 1.000000
0.231229 -0.550106 -0.515505 0.000000 -0.000000 1.000000 245 208 149 1.000000
0.113929 0.538017 0.600866 -0.044533 0.996571 -0.069729 255 255 255 1.000000
0.462790 -0.104604 0.130239 -1.000000 0.000000 0.000000 255 255 255 1.000000
0.195392 -0.686133 0.347383 0.000000 0.000000 -1.000000 244 207 148 1.000000
-0.419416 0.171846 -0.503944 1.000000 0.000000 0.000000 255 255 255 1.000000
-0.082492 -0.400118 0.296890 0.000000 1.000000 0.000000 255 255 255 1.000000
-0.258728 -0.487050 0.176537 0.000000 -1.000000 -0.000000 238 206 145 1.000000
-0.315854 -0.497761 0.527688 0.000000 0.000000 -1.000000 255 255 255 1.000000
-0.074733 0.488528 0.282439 0.000000 1.000000 0.000000 255 255 255 1.000000
0.337221 0.493240 -0.116919 1.000000 0.000000 0.000000 255 255 255 1.000000
0.045856 -0.461292 -0.339144 0.000000 1.000000 0.000000 242 205 146 1.000000
-0.403950 -0.461292 -0.252999 0.000000 -1.000000 -0.000000 255 255 255 1.000000
-0.301344 -0.290639 -0.502626 0.000000 -0.000000 1.000000 244 207 148 1.000000
0.062169 -0.218358 -0.322321 0.000000 0.000000 -1.000000 255 255 255 1.000000
-0.282191 -0.487050 -0.484294 0.000000 -1.000000 -0.000000 245 213 152 1.000000
-0.338923 -0.174319 -0.187091 1.000000 0.000000 0.000000 255 255 255 1.000000
-0.313165 0.526546 0.285278 1.000000 0.000000 0.000000 245 209 145 1.000000
-0.338923 -0.180516 0.008041 -1.000000 0.000000 0.000000 246 209 150 1.000000
0.059788 0.443981 0.566324 0.000000 -0.000000 1.000000 32 4 7 1.000000
-0.264237 -0.247830 0.566324 0.000000 0.000000 -1.000000 255 255 255 1.000000
0.103665 -0.230122 -0.322321 0.000000 -0.000000 1.000000 245 208 149 1.000000
0.371027 0.041182 -0.515505 0.000000 -0.000000 1.000000 255 255 255 1.000000
0.462790 -0.524074 -0.311406 -1.000000 0.000000 0.000000 255 255 255 1.000000
0.436011 0.465392 0.489051 0.000000 0.000000 -1.000000 247 215 154 1.000000
-0.136612 -0.237706 0.501930 0.000000 -0.000000 1.000000 255 255 255 1.000000
0.462790 0.394512 -0.220873 -1.000000 0.000000 0.000000 255 255 255 1.000000
0.212276 0.578213 -0.322321 0.000000 0.000000 -1.000000 255 255 255 1.000000
-0.340234 -0.437349 0.527688 0.000000 0.000000 -1.000000 38 10 13 1.000000
0.462790 0.655868 0.406996 -1.000000 0.000000 0.000000 255 255 255 1.000000
0.443472 -0.233780 -0.350270 1.000000 0.000000 0.000000 255 255 255 1.000000
-0.301953 0.736447 -0.533266 0.000000 -1.000000 -0.000000 255 255 255 1.000000
-0.370269 0.262753 -0.515505 0.000000 0.000000 -1.000000 246 209 150 1.000000
0.220714 0.616146 0.501930 0.000000 0.000000 -1.000000 246 209 150 1.000000
-0.422517 -0.757508 0.162029 0.000000 -1.000000 -0.000000 241 209 148 1.000000
-0.147159 0.488528 -0.131599 0.000000 -1.000000 -0.000000 247 210 151 1.000000
-0.105254 0.086938 -0.502626 0.000000 0.000000 -1.000000 255 255 255 1.000000
-0.109234 -0.616283 0.366701 0.000000 0.000000 -1.000000 255 255 255 1.000000
-0.097902 -0.725459 -0.554142 0.000000 0.000000 -1.000000 242 205 146 1.000000
-0.407788 -0.382238 -0.502626 0.000000 -0.000000 1.000000 243 215 153 1.000000
-0.283757 -0.461292 -0.199825 0.000000 -1.000000 -0.000000 255 255 255 1.000000
-0.101907 -0.163158 -0.348079 0.000000 -0.000000 1.000000 255 255 255 1.000000
0.031651 -0.123571 0.527688 0.000000 0.000000 -1.000000 50 22 25 1.000000
0.443472 -0.602118 -0.002647 1.000000 0.000000 0.000000 255 255 255 1.000000
-0.054048 0.166366 -0.348079 0.000000 0.000000 -1.000000 240 203 144 1.000000
0.278587 -0.461292 0.328661 0.000000 1.000000 0.000000 239 202 143 1.000000
0.462790 -0.271979 0.197912 -1.000000 0.000000 0.000000 255 255 255 1.000000
-0.419416 0.029023 -0.034014 -1.000000 0.000000 0.000000 255 255 255 1.000000
0.114656 -0.419627 0.566324 0.000000 -0.000000 1.000000 38 10 13 1.000000
0.324508 -0.525491 0.527688 0.000000 -0.000000 1.000000 27 0 2 1.000000
0.462790 0.204474 -0.037503 1.000000 0.000000 0.000000 29 0 2 1.000000
-0.338923 0.589311 0.150854 -1.000000 0.000000 0.000000 244 208 144 1.000000
-0.012210 -0.366633 0.566324 0.000000 -0.000000 1.000000 48 20 23 1.000000
-0.419416 0.440632 -0.396876 -1.000000 0.000000 0.000000 255 255 255 1.000000
0.362978 0.565637 -0.217540 1.000000 0.000000 0.000000 243 207 143 1.000000
-0.350576 -0.477391 0.527688 0.000000 0.000000 -1.000000 31 3 6 1.000000
-0.326860 0.383782 -0.502626 0.000000 0.000000 -1.000000 255 255 255 1.000000
-0.091925 -0.380540 0.566324 0.000000 -0.000000 1.000000 34 6 9 1.000000
-0.419416 0.445847 -0.258193 1.000000 0.000000 0.000000 244 212 151 1.000000
-0.144215 -0.400118 0.144867 0.000000 -1.000000 -0.000000 247 211 147 1.000000
0.318981 -0.043152 0.566324 0.000000 0.000000 -1.000000 255 255 255 1.000000
0.443472 -0.053875 -0.365095 1.000000 0.000000 0.000000 255 255 255 1.000000
-0.234267 -0.081850 -0.502626 0.000000 -0.000000 1.000000 248 211 155 1.000000
-0.067837 0.356782 0.489051 0.000000 0.000000 -1.000000 244 207 148 1.000000
-0.338923 -0.285762 -0.198366 -1.000000 0.000000 0.000000 246 209 150 1.000000
0.066754 -0.461292 -0.288386 0.000000 1.000000 0.000000 243 206 147 1.000000
0.337221 -0.119002 -0.175979 1.000000 0.000000 0.000000 255 255 255 1.000000
-0.311175 0.661117 0.489051 0.000000 0.000000 -1.000000 244 207 148 1.000000
0.013469 -0.296817 0.501930 0.000000 -0.000000 1.000000 255 255 255 1.000000
-0.202569 -0.400118 -0.250495 0.000000 1.000000 0.000000 255 255 255 1.000000
-0.313165 0.155902 0.288816 1.000000 0.000000 0.000000 244 207 148 1.000000
0.462790 0.327839 0.199747 -1.000000 0.000000 0.000000 255 255 255 1.000000
0.337221 0.576384 0.160233 1.000000 0.000000 0.000000 255 255 255 1.000000
0.393797 0.144223 0.527688 0.000000 0.000000 -1.000000 36 8 11 1.000000
-0.236112 0.498187 0.202134 0.000000 -1.000000 -0.000000 255 255 255 1.000000
0.362978 0.276971 -0.186531 1.000000 0.000000 0.000000 244 207 148 1.000000
-0.165611 0.163335 -0.304714 0.000000 -1.000000 -0.000000 255 255 255 1.000000
0.443472 -0.725649 -0.494793 1.000000 0.000000 0.000000 255 255 255 1.000000
0.397458 0.059551 0.527688 0.000000 -0.000000 1.000000 255 255 255 1.000000
-0.313165 0.270863 0.331342 1.000000 0.000000 0.000000 246 209 150 1.000000
-0.419416 -0.662833 0.072823 -1.000000 0.000000 0.000000 255 255 255 1.000000
0.362978 0.491201 0.185419 1.000000 0.000000 0.000000 246 209 150 1.000000
0.362978 0.491623 0.461798 -1.000000 0.000000 0.000000 255 255 255 1.000000
-0.251831 -0.122037 0.566324 0.000000 0.000000 -1.000000 255 255 255 1.000000
0.462790 0.378306 0.251025 -1.000000 0.000000 0.000000 255 255 255 1.000000
0.337221 0.251793 -0.303861 1.000000 0.000000 0.000000 255 255 255 1.000000
-0.419416 0.273504 -0.479394 1.000000 0.000000 0.000000 247 205 141 1.000000
0.173504 -0.064772 -0.502626 0.000000 -0.000000 1.000000 239 209 147 1.000000
0.277206 -0.400118 0.161354 0.000000 -1.000000 -0.000000 247 210 151 1.000000
0.152036 -0.138155 -0.322321 0.000000 0.000000 -1.000000 255 255 255 1.000000
0.461519 -0.757508 -0.247414 0.000000 1.000000 0.000000 255 255 255 1.000000
-0.285961 -0.400118 -0.236717 0.000000 1.000000 0.000000 255 255 255 1.000000
-0.056932 -0.214549 0.501930 0.000000 0.000000 -1.000000 246 209 150 1.000000
0.057752 0.593828 0.527688 0.000000 -0.000000 1.000000 255 255 255 1.000000
0.337221 -0.378824 0.416129 -1.000000 0.000000 0.000000 242 206 142 1.000000
-0.338923 -0.347157 -0.260142 1.000000 0.000000 0.000000 255 255 255 1.000000
-0.267943 -0.487050 -0.092830 0.000000 1.000000 0.000000 251 214 155 1.000000
0.396321 -0.461292 0.119128 0.000000 1.000000 0.000000 244 216 154 1.000000
0.462790 0.638685 -0.030404 -1.000000 0.000000 0.000000 255 255 255 1.000000
0.272955 0.153676 -0.182874 0.000000 1.000000 0.000000 255 255 255 1.000000
0.362978 0.207964 0.179695 -1.000000 0.000000 0.000000 255 255 255 1.000000
-0.311251 -0.255861 -0.348079 0.000000 0.000000 -1.000000 244 207 148 1.000000
-0.172316 0.153676 0.217142 0.000000 -1.000000 -0.000000 249 212 153 1.000000
-0.438734 0.321983 0.100763 -1.000000 0.000000 0.000000 32 4 7 1.000000
0.326085 -0.400118 0.496625 0.000000 1.000000 0.000000 255 255 255 1.000000
-0.131712 -0.461292 -0.080019 0.000000 1.000000 0.000000 247 206 148 1.000000
-0.191348 0.498187 0.348193 0.000000 1.000000 0.000000 246 208 149 1.000000
-0.438734 0.720678 -0.546641 -1.000000 0.000000 0.000000 48 20 23 1.000000
0.362978 -0.204775 0.301690 1.000000 0.000000 0.000000 249 212 153 1.000000
-0.012376 0.456988 -0.515505 0.000000 0.000000 -1.000000 240 203 144 1.000000
0.083773 0.736447 -0.553380 0.000000 -1.000000 -0.000000 255 255 255 1.000000
-0.113140 -0.394213 -0.348079 0.000000 0.000000 -1.000000 242 205 146 1.000000
0.428160 0.672052 0.429808 0.000000 -1.000000 -0.000000 243 206 147 1.000000
0.056137 0.188639 -0.322321 0.000000 0.000000 -1.000000 255 255 255 1.000000
0.067594 -0.393222 -0.502626 0.000000 -0.000000 1.000000 246 209 150 1.000000
0.408729 0.597528 -0.502626 0.000000 -0.000000 1.000000 248 211 152 1.000000
0.109011 -0.390458 -0.007316 0.000000 -1.000000 -0.000000 255 255 255 1.000000
0.357905 -0.002563 0.527688 0.000000 0.000000 -1.000000 255 255 255 1.000000
0.364082 -0.461292 0.171166 0.000000 1.000000 0.000000 246 206 143 1.000000
-0.313165 -0.353650 -0.112451 -1.000000 0.000000 0.000000 255 255 255 1.000000
-0.017173 -0.109878 -0.322321 0.000000 -0.000000 1.000000 240 203 144 1.000000
0.443472 -0.260649 0.430988 -1.000000 0.000000 0.000000 250 207 150 1.000000
0.362978 0.154821 0.425039 1.000000 0.000000 0.000000 241 209 149 1.000000
0.218646 0.498187 0.061270 0.000000 -1.000000 -0.000000 255 255 255 1.000000
-0.419416 0.517972 -0.378932 -1.000000 0.000000 0.000000 255 255 255 1.000000
0.224640 -0.261204 -0.348079 0.000000 -0.000000 1.000000 255 255 255 1.000000
-0.419416 0.241036 0.107072 -1.000000 0.000000 0.000000 255 255 255 1.000000
-0.157060 -0.239526 -0.322321 0.000000 0.000000 -1.000000 255 255 255 1.000000
-0.232738 -0.167739 0.566324 0.000000 0.000000 -1.000000 255 255 255 1.000000
-0.421538 0.736447 -0.406678 0.000000 1.000000 0.000000 246 210 146 1.000000
-0.419416 -0.317191 -0.113852 1.000000 0.000000 0.000000 247 215 154 1.000000
-0.338923 -0.392285 0.142865 -1.000000 0.000000 0.000000 246 204 142 1.000000
0.308055 0.153676 0.377597 0.000000 -1.000000 -0.000000 247 215 154 1.000000
-0.088414 0.163335 -0.138997 0.000000 1.000000 0.000000 245 208 149 1.000000
0.176944 -0.487050 -0.095662 0.000000 1.000000 0.000000 246 214 153 1.000000
0.430068 -0.253422 -0.515505 0.000000 -0.000000 1.000000 255 255 255 1.000000
0.103093 -0.461292 0.422258 0.000000 -1.000000 -0.000000 255 255 255 1.000000
0.279964 -0.181390 0.566324 0.000000 0.000000 -1.000000 255 255 255 1.000000
-0.101349 -0.554799 -0.515505 0.000000 0.000000 -1.000000 255 255 255 1.000000
-0.366946 -0.697669 -0.554142 0.000000 -0.000000 1.000000 255 255 255 1.000000
0.081337 0.488528 0.464643 0.000000 -1.000000 -0.000000 249 212 153 1.000000
0.362978 -0.079509 0.415323 -1.000000 0.000000 0.000000 255 255 255 1.000000
-0.311505 0.132444 0.566324 0.000000 -0.000000 1.000000 29 1 4 1.000000
-0.137623 -0.400118 0.189732 0.000000 1.000000 0.000000 255 255 255 1.000000
-0.390620 0.591749 0.566324 0.000000 -0.000000 1.000000 39 11 14 1.000000
0.337221 -0.147811 0.415852 -1.000000 0.000000 0.000000 244 208 144 1.000000
0.162162 -0.496507 0.366701 0.000000 0.000000 -1.000000 255 255 255 1.000000
0.353413 0.608775 -0.348079 0.000000 -0.000000 1.000000 255 255 255 1.000000
-0.438734 -0.572182 -0.430583 -1.000000 0.000000 0.000000 33 5 8 1.000000
-0.438734 0.541315 0.433330 -1.000000 0.000000 0.000000 39 11 14 1.000000
-0.035493 -0.487050 -0.408496 0.000000 -1.000000 -0.000000 242 205 146 1.000000
0.462790 0.050045 0.065515 -1.000000 0.000000 0.000000 255 255 255 1.000000
0.041475 -0.487050 0.487589 0.000000 -1.000000 -0.000000 246 209 150 1.000000
0.439815 -0.378053 0.489051 0.000000 0.000000 -1.000000 249 212 153 1.000000
0.380356 -0.487050 -0.024544 0.000000 -1.000000 -0.000000 244 207 148 1.000000
-0.390571 -0.461292 -0.365451 0.000000 -1.000000 -0.000000 255 255 255 1.000000
-0.261345 -0.620827 -0.515505 0.000000 -0.000000 1.000000 246 209 150 1.000000
-0.133630 -0.106032 -0.322321 0.000000 0.000000 -1.000000 255 255 255 1.000000
0.462790 0.359465 0.477242 -1.000000 0.000000 0.000000 255 255 255 1.000000
0.438910 -0.487050 -0.257641 0.000000 1.000000 0.000000 242 210 149 1.000000
-0.419416 -0.679631 -0.031340 -1.000000 0.000000 0.000000 255 255 255 1.000000
0.186898 0.504836 -0.515505 0.000000 -0.000000 1.000000 255 255 255 1.000000
0.030218 -0.292770 0.566324 0.000000 0.000000 -1.000000 255 255 255 1.000000
-0.400503 0.642943 -0.554142 0.000000 0.000000 -1.000000 243 206 147 1.000000
0.409639 0.540475 0.489051 0.000000 -0.000000 1.000000 255 255 255 1.000000
0.337221 0.500029 -0.247479 1.000000 0.000000 0.000000 255 255 255 1.000000
0.337221 0.575682 0.273977 1.000000 0.000000 0.000000 255 255 255 1.000000
-0.338923 -0.082100 -0.262687 -1.000000 0.000000 0.000000 245 208 149 1.000000
-0.303450 -0.471786 -0.515505 0.000000 -0.000000 1.000000 255 255 255 1.000000
-0.338923 -0.344637 0.096831 -1.000000 0.000000 0.000000 241 205 141 1.000000
-0.162174 0.153676 0.067755 0.000000 -1.000000 -0.000000 246 209 150 1.000000
-0.438734 -0.326069 -0.476574 -1.000000 0.000000 0.000000 26 0 1 1.000000
-0.338923 0.575609 -0.177211 -1.000000 0.000000 0.000000 246 209 150 1.000000
0.200967 -0.325784 -0.322321 0.000000 0.000000 -1.000000 255 255 255 1.000000
0.295381 0.281940 -0.515505 0.000000 -0.000000 1.000000 255 255 255 1.000000
0.337221 -0.344398 0.174270 1.000000 0.000000 0.000000 255 255 255 1.000000
0.167375 0.329859 0.489051 0.000000 0.000000 -1.000000 250 218 157 1.000000
-0.355109 0.697810 -0.475454 0.000000 -1.000000 -0.000000 255 255 255 1.000000
-0.271168 0.578507 0.566324 0.000000 0.000000 -1.000000 255 255 255 1.000000
0.366562 0.495106 -0.502626 0.000000 0.000000 -1.000000 255 255 255 1.000000
0.447106 0.685701 0.527688 0.000000 -0.000000 1.000000 27 0 2 1.000000
0.123321 0.462770 -0.329705 0.000000 1.000000 0.000000 255 255 255 1.000000
0.223388 -0.487050 -0.399468 0.000000 1.000000 0.000000 246 210 146 1.000000
-0.122606 -0.487050 -0.247910 0.000000 1.000000 0.000000 244 207 148 1.000000
-0.438734 -0.377027 0.158174 -1.000000 0.000000 0.000000 33 5 8 1.000000
-0.006897 0.498187 -0.110552 0.000000 -1.000000 -0.000000 255 255 255 1.000000
0.020731 -0.337284 -0.322321 0.000000 -0.000000 1.000000 243 207 143 1.000000
0.423426 -0.461292 0.449809 0.000000 -1.000000 -0.000000 255 255 255 1.000000
0.337221 0.534802 0.038496 1.000000 0.000000 0.000000 255 255 255 1.000000
0.344224 0.697810 0.482323 0.000000 1.000000 0.000000 243 210 153 1.000000
-0.438734 0.376072 0.011300 -1.000000 0.000000 0.000000 40 12 15 1.000000
0.029520 -0.563547 -0.554142 0.000000 -0.000000 1.000000 255 255 255 1.000000
0.443472 0.728551 -0.447343 1.000000 0.000000 0.000000 255 255 255 1.000000
-0.184289 0.056168 0.489051 0.000000 0.000000 -1.000000 249 212 153 1.000000
0.443472 0.306941 0.430317 1.000000 0.000000 0.000000 255 255 255 1.000000
-0.287999 -0.487050 0.053252 0.000000 1.000000 0.000000 247 211 147 1.000000
-0.010736 -0.487050 -0.126599 0.000000 -1.000000 -0.000000 246 209 150 1.000000
0.214581 -0.487050 0.007640 0.000000 -1.000000 -0.000000 239 202 143 1.000000
-0.220391 -0.390458 -0.213796 0.000000 1.000000 0.000000 246 209 150 1.000000
-0.125506 -0.461292 -0.327007 0.000000 1.000000 0.000000 244 207 148 1.000000
-0.432295 -0.224990 0.541727 1.000000 0.000000 0.000000 255 255 255 1.000000
-0.438734 -0.162938 -0.295374 1.000000 0.000000 0.000000 255 255 255 1.000000
0.135308 -0.378856 0.566324 0.000000 0.000000 -1.000000 255 255 255 1.000000
0.357602 0.282465 0.076451 0.000000 -1.000000 -0.000000 255 255 255 1.000000
-0.049830 0.271151 -0.322321 0.000000 0.000000 -1.000000 255 255 255 1.000000
-0.032028 -0.132993 0.566324 0.000000 -0.000000 1.000000 39 11 14 1.000000
0.252681 -0.580410 0.366701 0.000000 -0.000000 1.000000 28 0 3 1.000000
0.337221 -0.238801 -0.126801 1.000000 0.000000 0.000000 255 255 255 1.000000
0.337221 0.232542 0.336020 -1.000000 0.000000 0.000000 241 205 141 1.000000
0.086716 0.182908 -0.515505 0.000000 0.000000 -1.000000 244 203 145 1.000000
0.462790 -0.352519 -0.381884 -1.000000 0.000000 0.000000 255 255 255 1.000000
0.254313 0.717129 0.562741 0.000000 1.000000 0.000000 56 34 35 1.000000
-0.103645 0.153676 -0.212487 0.000000 -1.000000 -0.000000 246 209 150 1.000000
-0.248254 -0.278547 0.501930 0.000000 -0.000000 1.000000 255 255 255 1.000000
-0.419416 -0.375877 0.111868 -1.000000 0.000000 0.000000 255 255 255 1.000000
-0.333402 0.559072 0.527688 0.000000 0.000000 -1.000000 255 255 255 1.000000
-0.338923 -0.345939 0.349361 -1.000000 0.000000 0.000000 247 211 147 1.000000
0.006443 -0.707469 0.347383 0.000000 0.000000 -1.000000 243 206 147 1.000000
0.337221 -0.204439 0.243924 -1.000000 0.000000 0.000000 240 204 140 1.000000
0.315959 -0.171071 0.527688 0.000000 0.000000 -1.000000 39 15 17 1.000000
-0.156845 0.463272 0.501930 0.000000 -0.000000 1.000000 255 255 255 1.000000
-0.313165 0.528559 -0.147424 1.000000 0.000000 0.000000 241 204 145 1.000000
-0.203238 0.715405 0.566324 0.000000 -0.000000 1.000000 37 9 12 1.000000
0.443472 0.292819 -0.551514 -1.000000 0.000000 0.000000 241 209 148 1.000000
0.010236 -0.413481 0.527688 0.000000 -0.000000 1.000000 244 208 144 1.000000
-0.338923 -0.307170 0.040993 1.000000 0.000000 0.000000 255 255 255 1.000000
0.056467 0.163335 0.267453 0.000000 1.000000 0.000000 238 202 138 1.000000
-0.414513 0.531635 0.489051 0.000000 0.000000 -1.000000 247 215 154 1.000000
0.433403 -0.461292 0.362785 0.000000 1.000000 0.000000 244 207 148 1.000000
-0.419416 -0.421474 0.229993 1.000000 0.000000 0.000000 252 220 159 1.000000
-0.149578 -0.425875 0.503890 0.000000 -1.000000 -0.000000 249 209 146 1.000000
0.216881 -0.328294 0.527688 0.000000 -0.000000 1.000000 255 255 255 1.000000
0.349615 -0.487050 -0.058310 0.000000 1.000000 0.000000 245 219 156 1.000000
0.443472 -0.639956 -0.194536 -1.000000 0.000000 0.000000 243 211 150 1.000000
-0.278742 -0.503659 0.489051 0.000000 0.000000 -1.000000 246 209 150 1.000000
-0.118816 0.646661 0.527688 0.000000 0.000000 -1.000000 36 8 11 1.000000
-0.025668 -0.318662 -0.322321 0.000000 -0.000000 1.000000 246 210 146 1.000000
0.362978 -0.162883 -0.172749 -1.000000 0.000000 0.000000 255 255 255 1.000000
0.461032 -0.572573 0.366701 0.000000 0.000000 -1.000000 255 255 255 1.000000
0.161374 0.153676 -0.001716 0.000000 1.000000 0.000000 255 255 255 1.000000
-0.255473 0.153676 0.453377 0.000000 -1.000000 -0.000000 243 209 149 1.000000
-0.313165 0.266047 -0.294488 -1.000000 0.000000 0.000000 255 255 255 1.000000
0.462790 0.065232 -0.340046 1.000000 0.000000 0.000000 35 11 13 1.000000
0.332483 -0.400118 0.010358 0.000000 1.000000 0.000000 255 255 255 1.000000
-0.438734 0.415355 -0.379784 1.000000 0.000000 0.000000 255 255 255 1.000000
0.019233 0.512726 -0.322321 0.000000 -0.000000 1.000000 241 205 141 1.000000
0.218127 -0.135421 0.566324 0.000000 -0.000000 1.000000 57 29 32 1.000000
-0.222480 -0.487050 -0.179136 0.000000 1.000000 0.000000 245 209 143 1.000000
-0.166420 -0.372868 0.527688 0.000000 0.000000 -1.000000 255 255 255 1.000000
0.070177 -0.672778 0.366701 0.000000 0.000000 -1.000000 255 255 255 1.000000
0.336369 0.624011 -0.554142 0.000000 0.000000 -1.000000 246 209 150 1.000000
-0.203999 0.330439 -0.502626 0.000000 -0.000000 1.000000 243 211 150 1.000000
-0.383987 -0.186360 0.566324 0.000000 0.000000 -1.000000 255 255 255 1.000000
0.443472 -0.634324 -0.248322 -1.000000 0.000000 0.000000 245 213 152 1.000000
0.443472 -0.462575 0.000117 1.000000 0.000000 0.000000 255 255 255 1.000000
-0.419416 0.690694 0.454293 -1.000000 0.000000 0.000000 249 217 156 1.000000
0.434292 0.177513 0.527688 0.000000 -0.000000 1.000000 28 0 3 1.000000
-0.096504 0.175237 0.527688 0.000000 0.000000 -1.000000 31 3 6 1.000000
-0.338923 -0.421102 -0.202415 1.000000 0.000000 0.000000 255 255 255 1.000000
-0.438734 0.550089 -0.161333 -1.000000 0.000000 0.000000 57 29 32 1.000000
-0.003474 0.048639 0.527688 0.000000 -0.000000 1.000000 255 255 255 1.000000
-0.039743 0.488528 0.132918 0.000000 1.000000 0.000000 255 255 255 1.000000
0.066297 -0.208696 -0.502626 0.000000 0.000000 -1.000000 255 255 255 1.000000
0.335117 -0.487050 -0.340071 0.000000 1.000000 0.000000 246 209 150 1.000000
0.362978 -0.396759 -0.051353 -1.000000 0.000000 0.000000 255 255 255 1.000000
-0.006375 -0.487050 -0.252277 0.000000 -1.000000 -0.000000 242 205 146 1.000000
-0.438734 0.345463 -0.456169 1.000000 0.000000 0.000000 255 255 255 1.000000
-0.195180 -0.494701 -0.554142 0.000000 -0.000000 1.000000 255 255 255 1.000000
-0.044264 -0.340884 0.566324 0.000000 -0.000000 1.000000 29 1 4 1.000000
-0.081035 0.498187 -0.108637 0.000000 -1.000000 -0.000000 255 255 255 1.000000
0.047885 -0.487050 0.367972 0.000000 -1.000000 -0.000000 243 206 147 1.000000
-0.174374 -0.514671 0.366701 0.000000 -0.000000 1.000000 30 2 5 1.000000
0.384565 0.418038 -0.515505 0.000000 -0.000000 1.000000 255 255 255 1.000000
0.462790 0.697041 0.399669 1.000000 0.000000 0.000000 34 6 9 1.000000
0.397703 0.185527 0.566324 0.000000 0.000000 -1.000000 255 255 255 1.000000
0.431705 0.271220 0.527688 0.000000 0.000000 -1.000000 255 255 255 1.000000
0.283550 -0.711355 0.366701 0.000000 -0.000000 1.000000 23 0 1 1.000000
-0.438734 0.105994 0.143003 -1.000000 0.000000 0.000000 24 0 0 1.000000
0.172911 0.326039 0.566324 0.000000 0.000000 -1.000000 255 255 255 1.000000
0.443472 -0.409877 0.279190 -1.000000 0.000000 0.000000 244 207 148 1.000000
-0.438734 -0.601472 0.220384 -1.000000 0.000000 0.000000 33 5 8 1.000000
-0.338923 -0.376626 0.309292 -1.000000 0.000000 0.000000 240 204 140 1.000000
0.362978 0.498837 -0.006882 1.000000 0.000000 0.000000 241 204 145 1.000000
0.043628 -0.152161 -0.515505 0.000000 0.000000 -1.000000 249 206 150 1.000000
-0.217327 -0.157844 0.501930 0.000000 -0.000000 1.000000 255 255 255 1.000000
0.362978 0.546389 0.364723 1.000000 0.000000 0.000000 243 207 143 1.000000
0.054341 -0.400118 0.032975 0.000000 1.000000 0.000000 255 255 255 1.000000
-0.438734 -0.653636 0.042643 1.000000 0.000000 0.000000 255 255 255 1.000000
-0.233571 -0.160855 -0.348079 0.000000 -0.000000 1.000000 255 255 255 1.000000
-0.054298 -0.461292 0.377123 0.000000 -1.000000 -0.000000 255 255 255 1.000000
0.462790 0.366515 0.002488 1.000000 0.000000 0.000000 34 6 9 1.000000
0.211976 0.650316 -0.515505 0.000000 -0.000000 1.000000 255 255 255 1.000000
0.029441 0.256191 0.527688 0.000000 0.000000 -1.000000 255 255 255 1.000000
0.293213 0.163335 0.445125 0.000000 -1.000000 -0.000000 255 255 255 1.000000
-0.419416 0.690097 -0.467051 1.000000 0.000000 -0.000000 255 255 255 1.000000
0.007393 -0.390458 0.203756 0.000000 1.000000 0.000000 240 204 140 1.000000
0.056420 0.488528 -0.209262 0.000000 -1.000000 -0.000000 244 208 144 1.000000
0.430854 -0.096692 0.527688 0.000000 0.000000 -1.000000 46 22 24 1.000000
-0.191231 -0.137193 -0.502626 0.000000 0.000000 -1.000000 255 255 255 1.000000
0.160880 -0.727794 0.347383 0.000000 0.000000 -1.000000 238 205 142 1.000000
-0.352584 -0.589251 -0.515505 0.000000 -0.000000 1.000000 243 206 147 1.000000
0.085138 0.163335 -0.193706 0.000000 -1.000000 -0.000000 255 255 255 1.000000
0.177427 0.624785 -0.502626 0.000000 0.000000 -1.000000 255 255 255 1.000000
-0.387332 -0.487050 0.277507 0.000000 -1.000000 -0.000000 249 216 153 1.000000
-0.338923 0.224349 0.347189 -1.000000 0.000000 0.000000 244 208 144 1.000000
0.462790 0.428827 0.357014 1.000000 0.000000 0.000000 44 16 19 1.000000
-0.205296 0.153676 -0.135083 0.000000 -1.000000 -0.000000 245 213 152 1.000000
-0.002612 0.530528 0.501930 0.000000 -0.000000 1.000000 255 255 255 1.000000
-0.148911 0.129382 -0.322321 0.000000 -0.000000 1.000000 245 204 138 1.000000
-0.419416 0.338359 -0.521789 1.000000 0.000000 0.000000 244 212 151 1.000000
0.075553 -0.502411 0.489051 0.000000 -0.000000 1.000000 255 255 255 1.000000
-0.438734 -0.349227 -0.290122 1.000000 0.000000 0.000000 255 255 255 1.000000
0.374294 0.457825 0.566324 0.000000 0.000000 -1.000000 255 255 255 1.000000
0.329787 -0.487050 0.311090 0.000000 1.000000 0.000000 234 198 134 1.000000
-0.419416 -0.003330 -0.187515 1.000000 0.000000 0.000000 244 216 154 1.000000
-0.419416 0.002806 0.007142 -1.000000 0.000000 0.000000 255 255 255 1.000000
0.462790 0.544906 -0.167830 1.000000 0.000000 0.000000 40 12 15 1.000000
0.143931 -0.461292 0.320682 0.000000 -1.000000 -0.000000 255 255 255 1.000000
-0.006775 0.153676 0.109778 0.000000 -1.000000 -0.000000 248 211 152 1.000000
0.462790 -0.722341 0.291795 -1.000000 0.000000 0.000000 255 255 255 1.000000
-0.431472 0.089622 0.566324 0.000000 0.000000 -1.000000 255 255 255 1.000000
-0.313165 0.142470 0.418330 1.000000 0.000000 0.000000 246 204 142 1.000000
-0.039267 0.498187 -0.051631 0.000000 1.000000 0.000000 245 211 151 1.000000
-0.419416 0.025361 -0.448753 -1.000000 0.000000 0.000000 255 255 255 1.000000
-0.009083 -0.230226 -0.515505 0.000000 -0.000000 1.000000 255 255 255 1.000000
0.462790 0.596461 0.343272 1.000000 0.000000 0.000000 31 3 6 1.000000
0.219327 -0.119146 -0.348079 0.000000 0.000000 -1.000000 246 209 150 1.000000
0.214178 -0.390458 0.229948 0.000000 -1.000000 -0.000000 255 255 255 1.000000
0.167302 0.498187 -0.245769 0.000000 1.000000 0.000000 244 207 148 1.000000
0.443472 0.014572 0.325543 1.000000 0.000000 0.000000 255 255 255 1.000000
0.462790 -0.618453 0.271038 1.000000 0.000000 0.000000 26 2 4 1.000000
-0.419416 -0.734340 0.254273 -1.000000 0.000000 0.000000 255 255 255 1.000000
0.462790 -0.484267 0.300622 -1.000000 0.000000 0.000000 255 255 255 1.000000
0.252154 0.110899 0.527688 0.000000 0.000000 -1.000000 22 0 1 1.000000
-0.338923 -0.099261 0.313183 -1.000000 0.000000 0.000000 244 207 148 1.000000
0.353959 -0.461292 0.416086 0.000000 1.000000 0.000000 246 209 150 1.000000
0.116422 0.238519 -0.322321 0.000000 -0.000000 1.000000 244 208 144 1.000000
-0.338923 0.579815 -0.257545 -1.000000 0.000000 0.000000 246 209 150 1.000000
0.362978 0.543166 0.081909 1.000000 0.000000 0.000000 243 202 144 1.000000
-0.381149 -0.487050 -0.224285 0.000000 -1.000000 -0.000000 244 207 148 1.000000
-0.313165 0.256072 0.058408 -1.000000 0.000000 0.000000 255 255 255 1.000000
0.362978 0.198221 -0.104038 -1.000000 0.000000 0.000000 255 255 255 1.000000
0.108256 0.024887 0.550499 0.000000 1.000000 0.000000 255 255 255 1.000000
0.053177 -0.487050 -0.205087 0.000000 1.000000 0.000000 249 217 156 1.000000
-0.317214 0.327177 -0.502626 0.000000 -0.000000 1.000000 242 206 142 1.000000
-0.338923 0.608821 -0.127641 1.000000 0.000000 0.000000 255 255 255 1.000000
-0.259781 -0.237527 -0.322321 0.000000 0.000000 -1.000000 255 255 255 1.000000
0.462790 -0.665783 0.019445 -1.000000 0.000000 0.000000 255 255 255 1.000000
-0.006858 0.498187 -0.173760 0.000000 1.000000 0.000000 246 209 150 1.000000
-0.009529 -0.400118 -0.264416 0.000000 1.000000 0.000000 255 255 255 1.000000
0.462790 -0.539346 0.301116 -1.000000 0.000000 0.000000 255 255 255 1.000000
-0.438734 -0.753647 -0.081804 1.000000 0.000000 0.000000 255 255 255 1.000000
0.314501 0.353299 0.565557 0.000000 1.000000 0.000000 36 12 14 1.000000
-0.313165 -0.344272 -0.192392 1.000000 0.000000 0.000000 240 207 144 1.000000
0.462790 -0.356434 0.206538 1.000000 0.000000 0.000000 51 23 26 1.000000
0.022485 -0.458727 -0.515505 0.000000 0.000000 -1.000000 242 214 152 1.000000
-0.090822 -0.409230 0.527688 0.000000 0.000000 -1.000000 38 10 13 1.000000
0.362978 -0.131409 -0.117803 1.000000 0.000000 0.000000 244 207 148 1.000000
-0.030375 0.604828 -0.515505 0.000000 -0.000000 1.000000 255 255 255 1.000000
0.192355 0.153676 0.266606 0.000000 -1.000000 -0.000000 238 202 138 1.000000
0.462790 -0.418766 -0.450252 -1.000000 0.000000 0.000000 255 255 255 1.000000
0.362978 -0.322277 -0.290889 -1.000000 0.000000 0.000000 255 255 255 1.000000
0.337221 0.543182 0.122325 -1.000000 0.000000 0.000000 246 210 146 1.000000
-0.438734 -0.513439 -0.299328 1.000000 0.000000 0.000000 255 255 255 1.000000
-0.419416 0.245808 -0.425853 1.000000 0.000000 0.000000 242 205 146 1.000000
0.362978 -0.175811 0.427202 1.000000 0.000000 0.000000 242 206 142 1.000000
0.462790 -0.583829 0.039766 -1.000000 0.000000 0.000000 255 255 255 1.000000
-0.163001 -0.433602 -0.515505 0.000000 -0.000000 1.000000 255 255 255 1.000000
0.337221 -0.363675 -0.233181 1.000000 0.000000 0.000000 255 255 255 1.000000
0.305287 -0.487050 -0.222999 0.000000 1.000000 0.000000 249 212 153 1.000000
0.101090 -0.390458 -0.272339 0.000000 -1.000000 -0.000000 255 255 255 1.000000
0.026731 0.581900 -0.520117 0.000000 -1.000000 -0.000000 241 204 145 1.000000
0.272707 0.641472 -0.515505 0.000000 -0.000000 1.000000 255 255 255 1.000000
0.362978 0.602100 0.411860 1.000000 0.000000 0.000000 248 211 152 1.000000
0.342592 0.434846 0.527688 0.000000 -0.000000 1.000000 255 255 255 1.000000
0.362978 0.225394 0.461589 1.000000 0.000000 0.000000 240 204 140 1.000000
0.160519 -0.400118 0.175171 0.000000 -1.000000 -0.000000 248 211 152 1.000000
-0.111156 0.111232 0.566324 0.000000 0.000000 -1.000000 255 255 255 1.000000
0.443472 -0.154135 -0.123147 1.000000 0.000000 0.000000 255 255 255 1.000000
0.362978 -0.260538 0.003731 1.000000 0.000000 0.000000 240 203 144 1.000000
0.443472 0.351001 -0.333808 -1.000000 0.000000 0.000000 246 214 153 1.000000
-0.419416 0.449825 -0.113133 -1.000000 0.000000 0.000000 255 255 255 1.000000
0.390282 -0.165949 0.527688 0.000000 -0.000000 1.000000 255 255 255 1.000000
0.083632 -0.487050 0.140284 0.000000 -1.000000 -0.000000 243 206 147 1.000000
-0.313165 -0.151537 0.315746 -1.000000 0.000000 0.000000 255 255 255 1.000000
-0.065640 0.516664 -0.502626 0.000000 0.000000 -1.000000 255 255 255 1.000000
0.037065 0.708196 0.527688 0.000000 -0.000000 1.000000 255 255 255 1.000000
-0.266973 -0.390458 0.375947 0.000000 1.000000 0.000000 246 214 154 1.000000
-0.180978 0.736337 0.527688 0.000000 -0.000000 1.000000 26 0 1 1.000000
0.066056 0.082285 -0.515505 0.000000 -0.000000 1.000000 255 255 255 1.000000
0.166041 -0.530763 -0.554142 0.000000 -0.000000 1.000000 255 255 255 1.000000
-0.438734 0.005261 0.211379 -1.000000 0.000000 0.000000 45 17 20 1.000000
-0.200241 -0.340239 0.566324 0.000000 -0.000000 1.000000 35 7 10 1.000000
-0.161358 0.163335 -0.159651 0.000000 1.000000 0.000000 245 213 152 1.000000
0.083814 0.111051 -0.502626 0.000000 0.000000 -1.000000 255 255 255 1.000000
-0.259897 0.221655 0.527688 0.000000 -0.000000 1.000000 255 255 255 1.000000
-0.388676 0.329948 0.566324 0.000000 -0.000000 1.000000 45 17 20 1.000000
-0.149813 -0.390458 -0.000066 0.000000 1.000000 0.000000 248 211 152 1.000000
0.362978 0.128571 0.495177 1.000000 0.000000 0.000000 244 207 148 1.000000
-0.116861 -0.390458 -0.161490 0.000000 -1.000000 -0.000000 255 255 255 1.000000
0.462790 0.011103 0.263228 1.000000 0.000000 0.000000 26 2 4 1.000000
-0.049283 0.153676 -0.265877 0.000000 -1.000000 -0.000000 242 206 142 1.000000
-0.138591 -0.461292 0.102837 0.000000 -1.000000 -0.000000 255 255 255 1.000000
-0.052579 -0.487050 0.083193 0.000000 1.000000 0.000000 242 206 142 1.000000
0.274010 -0.461292 -0.358360 0.000000 1.000000 0.000000 248 211 152 1.000000
0.174610 -0.487050 -0.427171 0.000000 -1.000000 -0.000000 245 208 149 1.000000
-0.206104 -0.563705 0.347383 0.000000 0.000000 -1.000000 247 215 154 1.000000
-0.170766 0.195000 -0.322321 0.000000 0.000000 -1.000000 255 255 255 1.000000
0.362978 -0.150376 0.315878 1.000000 0.000000 0.000000 239 202 143 1.000000
0.443472 -0.312460 0.278929 1.000000 0.000000 0.000000 255 255 255 1.000000
0.318058 0.494156 0.566324 0.000000 0.000000 -1.000000 255 255 255 1.000000
0.401871 -0.487050 0.186349 0.000000 1.000000 0.000000 249 216 153 1.000000
0.108434 -0.355022 0.566324 0.000000 0.000000 -1.000000 255 255 255 1.000000
0.362978 -0.264423 0.202864 -1.000000 0.000000 0.000000 255 255 255 1.000000
0.428219 -0.456088 0.527688 0.000000 -0.000000 1.000000 24 0 2 1.000000
0.375390 0.697810 0.464968 0.000000 1.000000 0.000000 243 211 150 1.000000
0.337221 0.565195 0.389119 1.000000 0.000000 0.000000 255 255 255 1.000000
0.175315 -0.097787 -0.348079 0.000000 0.000000 -1.000000 249 212 153 1.000000
-0.313165 0.536871 -0.290084 -1.000000 0.000000 0.000000 255 255 255 1.000000
0.413954 -0.461292 -0.079392 0.000000 1.000000 0.000000 240 212 150 1.000000
-0.397475 -0.427148 0.566324 0.000000 -0.000000 1.000000 36 8 11 1.000000
0.443472 -0.059826 0.408400 -1.000000 0.000000 0.000000 246 214 153 1.000000
0.403857 0.668080 -0.554142 0.000000 -0.000000 1.000000 255 255 255 1.000000
-0.110649 -0.224211 0.566324 0.000000 -0.000000 1.000000 38 10 13 1.000000
-0.419416 -0.614291 -0.225496 1.000000 0.000000 0.000000 245 213 152 1.000000
-0.338923 -0.381722 -0.137319 -1.000000 0.000000 0.000000 246 209 150 1.000000
-0.042903 -0.461292 -0.073793 0.000000 -1.000000 -0.000000 255 255 255 1.000000
0.335065 -0.461292 -0.279213 0.000000 1.000000 0.000000 247 210 151 1.000000
0.443472 -0.734839 -0.186416 -1.000000 0.000000 0.000000 245 208 149 1.000000
-0.313165 0.172281 -0.274236 -1.000000 0.000000 0.000000 255 255 255 1.000000
-0.419416 -0.220275 0.029105 -1.000000 0.000000 0.000000 255 255 255 1.000000
-0.163516 0.153676 0.104651 0.000000 -1.000000 -0.000000 247 210 144 1.000000
0.211117 -0.487050 0.103388 0.000000 1.000000 0.000000 245 205 140 1.000000
0.370762 -0.751072 0.347383 0.000000 0.000000 -1.000000 242 205 146 1.000000
-0.338923 -0.113196 0.375109 1.000000 0.000000 0.000000 255 255 255 1.000000
0.013501 0.634721 -0.554142 0.000000 -0.000000 1.000000 255 255 255 1.000000
-0.313165 -0.197300 0.216941 1.000000 0.000000 0.000000 248 211 152 1.000000
0.462790 0.089428 0.403526 1.000000 0.000000 0.000000 28 4 6 1.000000
-0.298652 -0.487050 -0.374811 0.000000 -1.000000 -0.000000 246 214 153 1.000000
0.443472 -0.432319 -0.385902 1.000000 0.000000 0.000000 255 255 255 1.000000
0.241211 -0.712420 -0.554142 0.000000 -0.000000 1.000000 255 255 255 1.000000
-0.310651 -0.461292 -0.253809 0.000000 -1.000000 -0.000000 255 255 255 1.000000
0.207144 -0.400118 0.331888 0.000000 -1.000000 -0.000000 242 210 149 1.000000
0.443472 0.010021 -0.461877 1.000000 0.000000 0.000000 255 255 255 1.000000
0.317458 0.498187 -0.178555 0.000000 -1.000000 -0.000000 255 255 255 1.000000
0.435689 -0.085708 0.489051 0.000000 0.000000 -1.000000 247 215 154 1.000000
0.462790 -0.288164 -0.500027 -1.000000 0.000000 0.000000 255 255 255 1.000000
0.443472 -0.553864 -0.375775 -1.000000 0.000000 0.000000 246 209 150 1.000000
0.194147 0.041617 0.566324 0.000000 0.000000 -1.000000 255 255 255 1.000000
0.363701 -0.461292 -0.304740 0.000000 -1.000000 -0.000000 255 255 255 1.000000
0.443472 -0.164077 -0.459815 1.000000 0.000000 0.000000 255 255 255 1.000000
0.336091 0.578834 0.566324 0.000000 -0.000000 1.000000 63 35 38 1.000000
-0.419416 -0.059268 -0.374980 -1.000000 0.000000 0.000000 255 255 255 1.000000
0.305910 -0.487050 -0.071432 0.000000 -1.000000 -0.000000 243 215 153 1.000000
-0.253268 0.234554 -0.348079 0.000000 0.000000 -1.000000 244 207 148 1.000000
0.166895 -0.001191 0.489051 0.000000 0.000000 -1.000000 250 218 157 1.000000
-0.419416 0.638432 0.020403 1.000000 0.000000 0.000000 240 204 140 1.000000
-0.438734 -0.276918 -0.308958 1.000000 0.000000 0.000000 255 255 255 1.000000
-0.419416 0.118789 -0.471422 -1.000000 0.000000 0.000000 255 255 255 1.000000
0.443472 0.355554 0.270672 -1.000000 0.000000 0.000000 244 207 148 1.000000
-0.012370 -0.449978 -0.502626 0.000000 -0.000000 1.000000 246 209 150 1.000000
-0.338923 -0.268731 0.098639 1.000000 0.000000 0.000000 255 255 255 1.000000
-0.045753 -0.222143 -0.348079 0.000000 -0.000000 1.000000 255 255 255 1.000000
-0.338923 -0.146525 -0.087458 -1.000000 0.000000 0.000000 244 207 148 1.000000
0.071266 -0.409393 -0.348079 0.000000 0.000000 -1.000000 245 202 145 1.000000
0.333365 0.488528 0.342036 0.000000 1.000000 0.000000 255 255 255 1.000000
0.310612 -0.190392 -0.322321 0.000000 -0.000000 1.000000 247 210 151 1.000000
-0.045191 -0.390458 -0.024276 0.000000 1.000000 0.000000 239 207 146 1.000000
0.309098 -0.657720 0.366701 0.000000 0.000000 -1.000000 255 255 255 1.000000
-0.419416 -0.105302 -0.034397 1.000000 0.000000 0.000000 245 208 149 1.000000
0.172095 -0.487050 0.128137 0.000000 -1.000000 -0.000000 247 210 151 1.000000
-0.162820 -0.062589 -0.515505 0.000000 0.000000 -1.000000 249 212 153 1.000000
0.362978 -0.163382 0.137132 1.000000 0.000000 0.000000 241 205 141 1.000000
0.279472 -0.148950 -0.502626 0.000000 0.000000 -1.000000 255 255 255 1.000000
0.443472 0.500660 -0.115161 -1.000000 0.000000 0.000000 251 214 155 1.000000
-0.087319 -0.525687 0.491069 0.000000 -1.000000 -0.000000 35 7 10 1.000000
0.107354 -0.227476 0.501930 0.000000 -0.000000 1.000000 255 255 255 1.000000
-0.152008 0.488528 0.357578 0.000000 -1.000000 -0.000000 250 208 144 1.000000
0.027549 -0.461292 -0.169075 0.000000 -1.000000 -0.000000 255 255 255 1.000000
0.052066 -0.078145 -0.342118 0.000000 -1.000000 -0.000000 255 255 255 1.000000
-0.170712 0.498187 0.065250 0.000000 1.000000 0.000000 244 207 148 1.000000
-0.338923 0.568155 0.065886 -1.000000 0.000000 0.000000 244 207 148 1.000000
-0.356062 0.380407 0.566324 0.000000 0.000000 -1.000000 255 255 255 1.000000
-0.372677 0.593868 -0.515505 0.000000 0.000000 -1.000000 247 215 154 1.000000
-0.438734 -0.469278 -0.316425 1.000000 0.000000 0.000000 255 255 255 1.000000
0.346230 -0.078145 0.481932 0.000000 -1.000000 -0.000000 255 255 255 1.000000
0.337221 -0.284154 0.464967 1.000000 0.000000 0.000000 255 255 255 1.000000
-0.451613 0.298615 0.526501 -1.000000 0.000000 0.000000 52 24 27 1.000000
-0.102576 -0.721771 0.347383 0.000000 -0.000000 1.000000 255 255 255 1.000000
0.290764 0.437754 -0.515505 0.000000 -0.000000 1.000000 255 255 255 1.000000
-0.338923 0.220860 0.296464 1.000000 0.000000 0.000000 255 255 255 1.000000
-0.419416 0.209198 0.397242 -1.000000 0.000000 0.000000 255 255 255 1.000000
0.443472 -0.408815 -0.109726 1.000000 0.000000 0.000000 255 255 255 1.000000
-0.415788 0.025430 -0.515505 0.000000 0.000000 -1.000000 245 208 149 1.000000
-0.419416 -0.427527 0.004276 -1.000000 0.000000 0.000000 255 255 255 1.000000
-0.102309 -0.461292 -0.010748 0.000000 -1.000000 -0.000000 255 255 255 1.000000
0.345727 -0.461292 0.012740 0.000000 -1.000000 -0.000000 255 255 255 1.000000
0.136532 0.158110 -0.348079 0.000000 -0.000000 1.000000 255 255 255 1.000000
-0.438734 0.505586 0.084059 1.000000 0.000000 0.000000 255 255 255 1.000000
-0.139975 0.153676 -0.106573 0.000000 -1.000000 -0.000000 242 205 146 1.000000
0.362978 0.568573 -0.096884 -1.000000 0.000000 0.000000 255 255 255 1.000000
0.270335 0.498187 0.247152 0.000000 -1.000000 -0.000000 255 255 255 1.000000
-0.365607 -0.047900 0.527688 0.000000 0.000000 -1.000000 32 4 7 1.000000
-0.074551 0.587902 -0.348079 0.000000 0.000000 -1.000000 243 206 147 1.000000
0.072080 -0.663853 -0.554142 0.000000 -0.000000 1.000000 255 255 255 1.000000
-0.372289 0.643784 -0.515505 0.000000 0.000000 -1.000000 245 208 149 1.000000
-0.218666 0.626752 0.566324 0.000000 0.000000 -1.000000 255 255 255 1.000000
0.268218 -0.400118 0.395247 0.000000 -1.000000 -0.000000 248 214 164 1.000000
-0.141797 -0.390458 0.299746 0.000000 -1.000000 -0.000000 255 255 255 1.000000
0.337221 0.226304 0.008551 1.000000 0.000000 0.000000 255 255 255 1.000000
0.132085 0.488528 -0.083487 0.000000 1.000000 0.000000 255 255 255 1.000000
-0.318642 -0.461292 -0.113424 0.000000 -1.000000 -0.000000 255 255 255 1.000000
0.055354 -0.743489 0.347383 0.000000 0.000000 -1.000000 245 208 149 1.000000
0.315768 -0.150194 -0.348079 0.000000 0.000000 -1.000000 246 210 146 1.000000
0.462790 -0.300076 -0.060360 1.000000 0.000000 0.000000 33 9 11 1.000000
-0.141885 -0.336526 0.527688 0.000000 -0.000000 1.000000 242 206 142 1.000000
-0.419416 0.671368 -0.019290 1.000000 0.000000 0.000000 245 208 149 1.000000
0.443472 0.091818 -0.278161 -1.000000 0.000000 0.000000 246 209 150 1.000000
0.379068 -0.487050 0.330134 0.000000 -1.000000 -0.000000 240 204 140 1.000000
-0.419416 0.551459 0.096734 -1.000000 0.000000 0.000000 255 255 255 1.000000
0.443472 0.047383 -0.245352 1.000000 0.000000 0.000000 255 255 255 1.000000
0.441399 0.632086 0.566324 0.000000 0.000000 -1.000000 255 255 255 1.000000
0.462790 0.420208 -0.094458 -1.000000 0.000000 0.000000 255 255 255 1.000000
0.431988 -0.515023 0.489051 0.000000 -0.000000 1.000000 255 255 255 1.000000
0.105317 0.475327 0.501930 0.000000 0.000000 -1.000000 242 206 142 1.000000
-0.114319 0.368699 0.489051 0.000000 -0.000000 1.000000 255 255 255 1.000000
-0.438734 0.440560 -0.519995 1.000000 0.000000 0.000000 255 255 255 1.000000
-0.224202 -0.042558 -0.515505 0.000000 -0.000000 1.000000 255 255 255 1.000000
-0.419416 0.618384 -0.418818 -1.000000 0.000000 0.000000 255 255 255 1.000000
-0.419416 -0.213432 -0.242120 -1.000000 0.000000 0.000000 255 255 255 1.000000
0.081757 -0.487050 0.186104 0.000000 -1.000000 -0.000000 239 203 139 1.000000
-0.313165 -0.372147 0.412772 1.000000 0.000000 0.000000 242 209 144 1.000000
-0.063074 0.153676 0.067265 0.000000 1.000000 0.000000 255 255 255 1.000000
-0.419416 -0.348385 -0.219287 -1.000000 0.000000 0.000000 255 255 255 1.000000
0.337221 -0.322685 0.023545 1.000000 0.000000 0.000000 255 255 255 1.000000
-0.338923 -0.237968 0.131859 1.000000 0.000000 0.000000 255 255 255 1.000000
0.337221 -0.132514 0.383969 1.000000 0.000000 0.000000 255 255 255 1.000000
0.303940 -0.390458 0.469833 0.000000 1.000000 0.000000 236 200 136 1.000000
0.261687 0.144808 -0.348079 0.000000 0.000000 -1.000000 242 206 142 1.000000
-0.419416 -0.634974 -0.509904 -1.000000 0.000000 0.000000 255 255 255 1.000000
0.462790 -0.255425 -0.004148 -1.000000 0.000000 0.000000 255 255 255 1.000000
0.127473 -0.239726 0.566324 0.000000 0.000000 -1.000000 255 255 255 1.000000
0.443472 0.399547 0.188405 1.000000 0.000000 0.000000 255 255 255 1.000000
0.211497 -0.019559 -0.502626 0.000000 0.000000 -1.000000 255 255 255 1.000000
-0.419416 0.064060 -0.087573 1.000000 0.000000 0.000000 248 211 152 1.000000
-0.202127 -0.406676 -0.348079 0.000000 0.000000 -1.000000 243 206 147 1.000000
-0.419280 -0.726275 -0.554142 0.000000 0.000000 -1.000000 246 203 146 1.000000
0.082691 0.531031 -0.322321 0.000000 -0.000000 1.000000 242 205 146 1.000000
0.026512 -0.521488 0.527688 0.000000 0.000000 -1.000000 255 255 255 1.000000
0.337221 0.548838 -0.054661 -1.000000 0.000000 0.000000 238 201 142 1.000000
0.443472 -0.081492 0.111802 -1.000000 0.000000 0.000000 245 208 149 1.000000
0.462790 0.696438 -0.350693 -1.000000 0.000000 0.000000 255 255 255 1.000000
0.068714 -0.164199 -0.322321 0.000000 0.000000 -1.000000 255 255 255 1.000000
-0.338923 -0.237113 -0.081056 -1.000000 0.000000 0.000000 250 207 150 1.000000
-0.366576 0.051787 0.489051 0.000000 0.000000 -1.000000 246 214 153 1.000000
-0.009476 0.153676 0.271376 0.000000 1.000000 0.000000 255 255 255 1.000000
-0.374864 0.214561 0.489051 0.000000 0.000000 -1.000000 246 218 156 1.000000
-0.438734 0.159520 0.401068 1.000000 0.000000 0.000000 255 255 255 1.000000
-0.438734 0.405146 -0.344467 -1.000000 0.000000 0.000000 27 0 2 1.000000
0.337221 -0.264549 -0.154845 1.000000 0.000000 0.000000 255 255 255 1.000000
0.077918 -0.400118 0.359730 0.000000 -1.000000 -0.000000 240 208 147 1.000000
