ply
format ascii 1.0
element vertex 1275
property float x
property float y
property float z
property uchar red
property uchar green
property uchar blue
end_header
-0.449915 0.103791 0.275043 153 76 0
0.466452 0.686886 -0.052059 76 0 153
-0.349688 0.522886 -0.050226 153 76 0
-0.378417 -0.161217 0.378120 0 0 255
-0.093365 0.519414 -0.412247 76 0 153
-0.439413 -0.104444 0.272562 76 0 153
-0.414855 -0.830781 -0.446611 127 0 127
-0.422708 0.149373 0.412484 0 0 255
-0.393520 -0.138808 -0.357078 76 0 153
-0.083278 -0.763062 0.234937 76 153 0
-0.472825 -0.628167 -0.057754 153 76 0
0.466452 -0.256381 0.274963 76 0 153
0.229722 -0.247240 -0.395065 76 0 153
-0.374130 -0.138808 -0.187171 76 0 153
0.302551 0.209139 0.384104 0 0 255
0.308353 -0.789472 -0.446611 127 0 127
-0.218404 -0.104444 0.181848 76 0 153
-0.059436 0.270606 -0.395065 76 0 153
0.443543 0.338742 -0.164610 76 0 153
0.121830 -0.602719 0.241529 153 0 76
0.188150 0.473025 -0.228974 153 0 76
-0.449915 0.352097 -0.084450 153 76 0
-0.382408 -0.611446 0.343756 255 0 0
0.466452 0.292668 0.174925 76 0 153
0.410231 -0.171452 -0.395065 76 0 153
0.470125 0.018989 0.378120 204 51 127
0.161814 0.585742 -0.228974 153 0 76
0.443543 -0.432384 -0.175492 76 0 153
0.173559 0.608604 -0.259368 153 0 76
0.032663 0.666961 -0.446611 76 153 0
0.301453 -0.693526 0.234937 76 153 0
-0.187248 0.559330 -0.263338 153 0 76
0.237444 0.552440 -0.263338 153 0 76
-0.335509 -0.602719 0.143530 153 0 76
0.466452 -0.108733 0.163317 76 0 153
-0.472825 0.279977 -0.021731 153 76 0
0.024816 -0.602719 -0.256531 153 0 76
0.304795 0.465687 0.412484 76 0 153
-0.372714 0.498158 0.412484 76 0 153
0.011529 0.494058 -0.043357 204 51 127
-0.437417 0.287417 -0.412247 76 0 153
-0.028878 0.597747 -0.412247 76 0 153
-0.421581 -0.146189 -0.412247 76 0 153
-0.235218 0.128735 -0.395065 76 0 153
0.006003 0.472526 0.378120 76 0 153
-0.316605 0.139499 0.384104 0 0 255
-0.075840 -0.826379 0.234937 76 153 0
0.054780 -0.286985 0.392695 0 0 255
-0.438521 0.517566 -0.395065 76 0 153
0.466452 -0.563761 -0.370366 76 0 153
0.222260 0.608604 -0.260327 153 0 76
-0.449915 -0.175363 -0.349396 153 76 0
-0.449915 0.541635 -0.335291 153 76 0
0.443543 0.364307 -0.012076 76 0 153
0.443543 0.216825 0.178919 76 0 153
-0.472825 -0.346010 -0.138907 153 76 0
-0.010773 -0.104444 -0.266273 76 0 153
0.466452 -0.828183 0.079829 0 127 127
-0.409468 0.680196 0.190082 0 127 127
0.466452 0.572419 -0.362459 76 0 153
0.112199 0.384225 0.378120 127 127 0
-0.438648 0.298500 0.343756 0 0 255
-0.472825 0.035773 0.238122 153 76 0
-0.384051 0.511133 -0.260089 153 76 0
-0.449915 -0.033851 -0.177865 153 76 0
0.326034 0.568627 0.378120 76 0 153
-0.410449 -0.615077 -0.446611 127 0 127
-0.024885 -0.602719 -0.243984 153 0 76
0.377679 0.518948 0.073744 76 0 153
-0.154634 -0.157297 -0.395065 76 0 153
-0.449915 0.573206 -0.018767 153 76 0
0.156239 -0.299859 0.384104 0 0 255
-0.312263 -0.138808 -0.157271 76 0 153
0.343269 0.537586 0.116035 76 0 153
0.122931 -0.778430 -0.446611 127 0 127
0.370964 0.371282 0.343756 127 127 0
0.466452 0.677558 -0.425548 76 0 153
0.443543 0.433185 0.024234 76 0 153
-0.165156 0.494058 0.205952 204 51 127
0.443543 0.491068 0.221010 76 0 153
-0.054979 0.623770 0.412484 76 0 153
-0.063547 0.608604 -0.260940 153 0 76
0.130448 0.539712 -0.412247 76 0 153
-0.105241 -0.634668 0.234937 76 153 0
-0.361649 -0.857443 0.234937 76 153 0
-0.261448 -0.498582 -0.412247 76 0 153
0.466452 0.663051 -0.379137 76 0 153
-0.449915 0.156099 -0.029390 153 76 0
0.161658 0.103573 -0.412247 76 0 153
0.477486 -0.659992 0.348320 204 51 127
-0.409203 0.490069 0.412484 76 0 153
0.466452 -0.205320 -0.191438 76 0 153
-0.013763 -0.304006 -0.395065 76 0 153
0.010697 0.591522 0.378120 76 0 153
0.020443 -0.602719 0.009015 153 0 76
0.443543 0.622625 0.139802 76 0 153
0.443543 0.108817 0.077976 76 0 153
0.207578 -0.138808 0.177639 76 0 153
0.123262 -0.104444 -0.376626 76 0 153
0.065996 -0.602719 -0.334349 153 0 76
0.264724 0.645832 0.346268 0 255 0
0.443543 0.330221 0.307437 76 0 153
0.393353 -0.699241 -0.446611 127 0 127
0.466452 0.327198 0.242373 76 0 153
0.009383 -0.744966 -0.446611 127 0 127
0.443543 0.025557 0.288708 76 0 153
0.292255 0.714559 -0.412761 76 153 0
0.075910 0.423696 0.412484 76 0 153
-0.449915 0.611351 0.154299 153 76 0
0.248759 0.037709 -0.412247 76 0 153
-0.448469 -0.287004 0.378120 0 0 255
0.206811 0.306664 -0.395065 76 0 153
0.443543 -0.229759 -0.165009 76 0 153
0.416227 0.287237 0.407317 0 0 255
-0.190738 -0.104444 0.110108 76 0 153
0.443543 -0.542954 0.255694 76 0 153
0.432644 -0.138808 0.304492 76 0 153
0.227535 0.390868 0.343756 127 127 0
0.006849 -0.141579 -0.395065 76 0 153
0.443543 0.712034 0.326894 76 0 153
0.466452 0.404348 -0.350027 76 0 153
-0.061428 0.349984 0.407472 0 0 255
-0.100042 0.677204 0.378120 0 255 0
-0.472825 -0.276920 -0.268493 153 76 0
-0.472825 0.550505 0.133611 153 76 0
0.443543 -0.522376 0.218569 76 0 153
-0.472825 -0.295385 0.070418 153 76 0
0.285842 -0.104444 0.006199 76 0 153
-0.316978 0.680196 -0.208633 0 127 127
-0.472825 0.496923 -0.275856 153 76 0
0.350975 -0.378463 -0.395065 76 0 153
-0.472825 -0.624435 0.208030 153 76 0
0.138690 -0.602719 0.116516 153 0 76
-0.433281 -0.518343 0.412484 0 0 255
0.466452 -0.128916 -0.338766 76 0 153
-0.384051 0.493696 0.095913 153 76 0
-0.075968 -0.715506 -0.446611 127 0 127
0.276655 -0.104444 0.218552 76 0 153
-0.478153 -0.428947 0.378120 0 0 255
-0.415552 0.476864 0.369897 0 0 255
-0.458240 0.134326 0.380926 0 0 255
-0.049261 0.502649 -0.209144 204 51 127
-0.171057 -0.591657 -0.412247 153 76 0
0.443543 0.171485 0.025214 76 0 153
-0.115957 0.327551 0.378120 0 0 255
-0.449915 0.457796 0.081037 153 76 0
-0.001949 0.631439 0.378120 76 0 153
-0.241179 0.494058 0.324242 204 51 127
-0.449915 -0.246015 0.206759 153 76 0
0.140857 -0.700243 -0.446611 127 0 127
-0.058671 -0.307233 -0.412247 76 0 153
-0.250841 0.116245 0.384104 0 0 255
0.443543 -0.372958 -0.248008 76 0 153
0.343882 -0.138808 -0.085966 76 0 153
0.443543 0.522108 0.130379 76 0 153
-0.449915 -0.229939 -0.236707 153 76 0
-0.472825 -0.059629 0.083917 153 76 0
-0.202906 -0.138808 0.055186 76 0 153
-0.177239 0.502649 0.275760 204 51 127
0.466452 -0.713322 -0.042207 0 127 127
0.466452 -0.307880 0.251743 76 0 153
-0.228574 -0.138808 -0.168825 76 0 153
-0.286269 -0.527349 0.378120 0 0 255
-0.134576 0.650917 0.411278 76 0 153
-0.285351 0.530120 -0.263338 153 0 76
-0.472825 0.244091 -0.383039 153 76 0
-0.449915 0.086029 -0.171942 153 76 0
0.106986 -0.346192 -0.412247 76 0 153
0.148555 -0.500765 -0.412247 76 0 153
0.207534 -0.104444 -0.168805 76 0 153
0.443543 -0.353571 0.052497 76 0 153
-0.099074 0.593615 0.343756 76 0 153
0.443543 -0.371260 0.156825 76 0 153
-0.382926 0.608604 0.059148 153 76 0
-0.345987 -0.596992 -0.427112 127 0 127
0.443543 -0.572622 0.009358 76 0 153
-0.401219 0.116966 0.412484 0 0 255
-0.472825 0.490305 -0.079289 153 76 0
-0.288081 -0.602719 0.074605 153 0 76
0.466452 0.300425 -0.414740 76 0 153
-0.123452 0.577104 -0.421642 76 153 0
0.004015 -0.602719 -0.074472 153 0 76
0.294707 0.677135 -0.446611 76 153 0
-0.378401 0.680196 -0.014554 0 127 127
0.026684 0.558980 -0.228974 153 0 76
-0.349688 0.606912 -0.158160 153 76 0
-0.400909 -0.138808 0.142652 76 0 153
0.466452 0.113327 0.212838 76 0 153
0.149157 0.539789 0.378120 76 0 153
0.051706 0.521437 0.343756 76 0 153
-0.472825 -0.199878 0.038139 153 76 0
0.125515 0.502649 0.261984 204 51 127
-0.472825 -0.029003 0.200656 153 76 0
0.444230 -0.186357 -0.446611 76 0 153
-0.384051 0.516225 0.366940 153 76 0
0.388339 0.060315 -0.395065 76 0 153
0.212736 0.502649 -0.091565 204 51 127
0.297147 -0.139936 -0.412247 76 0 153
0.259859 0.502806 0.412484 76 0 153
-0.449915 -0.645676 0.022304 153 76 0
0.443543 0.409064 -0.173834 76 0 153
-0.472825 -0.615520 -0.418610 153 76 0
-0.346509 -0.602719 -0.250568 153 0 76
0.039796 0.494058 -0.000103 204 51 127
0.214877 0.049294 -0.395065 76 0 153
-0.449915 0.161221 -0.329156 153 76 0
0.377679 0.573050 -0.029356 76 0 153
-0.409239 -0.602719 0.253089 153 0 76
-0.275361 -0.138808 0.342852 76 0 153
0.364683 0.471149 0.249140 76 0 153
0.377218 -0.138808 0.255572 76 0 153
-0.363436 0.680196 -0.127852 0 127 127
0.443543 0.588381 -0.117189 76 0 153
0.307146 -0.138808 -0.370281 76 0 153
-0.449915 -0.090664 -0.405551 153 76 0
-0.472825 -0.538696 0.254158 153 76 0
0.443543 0.053743 0.027097 76 0 153
-0.160434 -0.104444 -0.045425 76 0 153
-0.142558 0.284214 0.406888 0 0 255
-0.472825 -0.379957 -0.090313 153 76 0
0.342021 0.444333 0.378120 76 0 153
-0.449915 0.102269 -0.244220 153 76 0
-0.025507 -0.602719 -0.191452 153 0 76
0.443543 -0.103034 -0.013145 76 0 153
-0.449915 -0.595701 0.076183 153 76 0
0.200853 -0.104444 0.309840 76 0 153
-0.385380 -0.542363 0.412484 0 0 255
0.331086 -0.104444 0.221891 76 0 153
-0.472825 -0.716135 -0.091424 127 127 0
-0.409140 0.104435 0.463385 255 0 0
-0.435257 0.163288 0.378120 0 0 255
0.443543 0.307752 -0.216614 76 0 153
0.040029 -0.104444 0.025047 76 0 153
0.325220 -0.602719 -0.228721 153 0 76
-0.102583 0.644586 -0.446611 76 153 0
0.095023 0.494058 0.134598 204 51 127
-0.000950 0.185086 0.384104 0 0 255
-0.472825 -0.001505 -0.183115 153 76 0
0.414603 0.657286 -0.317903 127 0 127
0.004371 -0.104444 0.085050 76 0 153
-0.449915 -0.429677 0.273787 153 76 0
0.466452 -0.450042 -0.020124 76 0 153
-0.409955 0.396666 -0.412247 76 0 153
-0.449915 0.207225 -0.429900 153 76 0
0.300804 0.502649 -0.155143 204 51 127
-0.220210 0.575905 -0.263338 153 0 76
0.466452 0.100561 -0.292366 76 0 153
-0.064298 0.509022 -0.263338 153 0 76
0.343315 0.602966 0.143985 76 0 153
-0.178080 0.357362 0.378120 0 0 255
-0.428027 0.680196 -0.127206 0 127 127
-0.472825 0.196712 0.034521 153 76 0
0.019011 0.631212 0.412484 76 0 153
-0.025642 0.573464 0.378120 76 0 153
-0.415552 0.632654 0.348408 0 0 255
-0.272757 0.445782 0.378120 76 0 153
-0.325789 0.608604 -0.235454 153 0 76
0.245637 0.668741 0.401643 76 0 153
0.351743 -0.216720 -0.412247 76 0 153
0.466452 0.513239 -0.112137 76 0 153
0.443543 -0.087017 0.291479 76 0 153
0.084297 0.494058 0.248215 204 51 127
-0.472825 -0.211356 -0.441081 153 76 0
-0.180143 0.653968 0.378120 76 0 153
0.466452 0.026829 0.220664 76 0 153
0.466452 -0.149622 0.122913 76 0 153
-0.472825 -0.389188 -0.237413 153 76 0
0.335481 0.680196 0.010474 127 0 127
0.439031 -0.104444 -0.229890 76 0 153
-0.233560 0.694016 0.378120 0 255 0
0.443543 0.191302 -0.191698 76 0 153
-0.472825 0.684908 -0.265148 153 76 0
0.199595 0.527035 0.343756 76 0 153
-0.384051 0.604555 0.180346 153 76 0
-0.192985 -0.234745 0.384104 0 0 255
0.373300 -0.130745 -0.395065 76 0 153
0.281677 -0.046765 0.384104 0 0 255
-0.086540 -0.134319 -0.395065 76 0 153
0.398818 0.471401 0.412484 76 0 153
-0.312460 0.669972 0.323566 0 127 127
0.466452 -0.198318 -0.317555 76 0 153
0.187381 0.407755 0.378120 76 0 153
0.476314 -0.573360 0.343756 204 51 127
-0.349688 0.536482 0.220187 153 76 0
0.443543 0.673022 0.072988 76 0 153
0.353270 0.657286 -0.284949 127 0 127
0.007322 0.561479 -0.412247 76 0 153
0.110785 -0.358705 0.384104 0 0 255
-0.384051 0.496509 0.140552 153 76 0
0.107045 -0.138808 0.015025 76 0 153
0.322408 -0.591264 0.364868 255 0 0
-0.063315 -0.104444 0.062562 76 0 153
-0.298345 0.255705 -0.395065 76 0 153
-0.074121 0.152749 -0.412247 76 0 153
0.381107 0.451116 -0.412247 76 0 153
-0.395194 -0.043982 0.412484 0 0 255
0.466452 -0.041982 0.176364 76 0 153
-0.310743 -0.602719 -0.185364 153 0 76
-0.063975 0.381904 0.343756 127 127 0
-0.382328 -0.104444 0.139085 76 0 153
-0.307965 -0.537299 -0.395065 76 0 153
-0.139835 -0.104444 -0.358877 76 0 153
0.144555 0.284840 -0.412247 76 0 153
-0.197694 0.494058 -0.040406 204 51 127
0.387939 -0.078561 -0.395065 76 0 153
0.466452 -0.272119 0.206917 76 0 153
0.443543 -0.655199 0.263443 76 0 153
-0.070926 0.169074 0.384104 0 0 255
-0.342475 -0.602719 0.310902 153 0 76
0.466452 0.687317 0.156551 76 0 153
-0.412654 -0.138808 0.014944 76 0 153
-0.340482 -0.138808 -0.005222 76 0 153
-0.449915 -0.472129 0.225254 153 76 0
0.466452 0.454164 -0.258378 76 0 153
0.256617 -0.634593 0.378120 255 0 0
-0.449915 0.409331 -0.192796 153 76 0
0.363931 -0.372951 0.412484 0 0 255
0.256486 -0.711982 -0.446611 127 0 127
-0.449915 -0.006672 0.014568 153 76 0
0.321950 0.680196 0.317310 127 0 127
0.443543 0.130045 0.241615 76 0 153
-0.484279 -0.306796 0.354437 0 0 255
-0.384051 0.572068 0.031810 153 76 0
0.186722 0.502649 0.313201 204 51 127
-0.055583 -0.104444 -0.352254 76 0 153
0.394576 0.578198 0.378120 76 0 153
0.023642 0.647710 0.343756 0 255 0
-0.280203 -0.104444 0.200754 76 0 153
-0.374399 -0.602719 0.203751 153 0 76
-0.286050 -0.254210 0.392695 0 0 255
0.390120 0.657286 -0.002103 127 0 127
0.099657 0.671326 -0.412247 76 153 0
-0.280839 -0.602719 -0.129419 153 0 76
0.051206 -0.641083 0.234937 76 153 0
-0.472825 0.516089 -0.182046 153 76 0
0.182396 -0.138808 0.110020 76 0 153
0.352139 -0.570358 0.412484 0 0 255
-0.472825 0.619394 -0.176523 153 76 0
-0.057714 0.589179 0.378120 76 0 153
0.081284 -0.826604 0.234937 76 153 0
0.041994 -0.831030 -0.446611 127 0 127
0.168299 0.071939 0.392695 0 0 255
-0.389850 -0.022745 0.378120 0 0 255
-0.060104 -0.205228 0.384104 0 0 255
-0.449915 -0.267999 -0.164671 153 76 0
-0.449915 -0.345395 -0.279289 153 76 0
0.248274 0.573313 -0.228974 153 0 76
-0.405049 -0.807938 0.234937 76 153 0
-0.043571 -0.364015 -0.412247 76 0 153
-0.091652 -0.662872 -0.446611 127 0 127
-0.212842 0.549861 0.412484 76 0 153
0.343315 0.587505 -0.111757 76 0 153
-0.368648 0.714559 0.348310 0 255 0
0.443543 0.267105 0.328194 76 0 153
0.466452 -0.466003 0.076162 76 0 153
0.190280 -0.602719 0.173082 153 0 76
0.466452 -0.320440 0.134117 76 0 153
-0.122447 -0.847115 0.234937 76 153 0
0.403598 0.644328 -0.412247 76 0 153
-0.224709 0.559996 -0.395065 76 0 153
0.357595 -0.580218 0.378120 0 0 255
0.475877 0.366640 0.343756 204 51 127
0.443543 0.396333 0.278218 76 0 153
0.270321 -0.301757 -0.395065 76 0 153
-0.291007 0.502649 -0.147137 204 51 127
0.444613 0.107684 0.378120 204 51 127
0.344695 0.471149 0.014533 76 0 153
0.443543 -0.203507 -0.376050 76 0 153
-0.126135 -0.783262 -0.446611 127 0 127
-0.248843 0.007479 -0.395065 76 0 153
-0.438234 -0.138808 0.309599 76 0 153
-0.484279 0.375445 0.355491 0 0 255
0.335832 0.613754 0.412484 76 0 153
0.466452 0.377361 0.011856 76 0 153
0.009334 0.494058 0.252287 204 51 127
0.414968 0.700853 -0.412247 76 153 0
0.367134 -0.258486 0.378120 0 0 255
0.286185 0.494058 -0.055835 204 51 127
-0.176943 -0.578614 0.412484 0 0 255
0.346333 -0.765917 -0.446611 127 0 127
-0.066276 0.416810 -0.395065 76 0 153
0.405614 -0.138808 0.041430 76 0 153
-0.472825 0.645656 -0.151942 153 76 0
0.374410 0.680196 0.341614 127 0 127
-0.437864 -0.210802 0.378120 0 0 255
-0.199879 0.577409 0.378120 76 0 153
-0.349688 0.515959 -0.175157 153 76 0
-0.173350 0.228806 0.384104 0 0 255
0.466452 -0.329083 -0.186737 76 0 153
0.270193 -0.104444 0.287002 76 0 153
-0.462639 0.546384 0.343756 0 0 255
-0.472825 0.573339 0.277267 153 76 0
0.083756 -0.138808 -0.351250 76 0 153
0.466452 -0.486045 0.175581 76 0 153
0.387687 0.231476 -0.395065 76 0 153
0.428691 -0.484310 0.401680 0 0 255
0.466452 0.493282 -0.245712 76 0 153
-0.447271 -0.454966 0.343756 0 0 255
0.320549 -0.104444 -0.382442 76 0 153
0.212701 0.676251 -0.412247 76 153 0
0.089472 -0.168469 -0.395065 76 0 153
0.443543 0.003567 -0.086494 76 0 153
0.442693 0.422428 0.343756 204 51 127
0.258802 -0.560413 -0.412247 76 0 153
0.018114 0.293673 0.410059 0 0 255
-0.277039 -0.845896 -0.446611 127 0 127
-0.442844 -0.138808 0.160145 76 0 153
0.306088 0.662367 0.240001 127 0 127
-0.449915 0.371049 0.186459 153 76 0
0.301924 -0.621935 0.343756 255 0 0
0.466452 -0.221438 0.106590 76 0 153
-0.222737 0.416740 0.351638 127 127 0
-0.451576 -0.733918 -0.446611 127 127 0
0.381542 -0.054989 0.412484 0 0 255
-0.052255 -0.579140 -0.395065 76 0 153
0.443543 0.370187 -0.092352 76 0 153
-0.063117 -0.138808 -0.163436 76 0 153
0.082492 -0.602719 0.290035 153 0 76
-0.449915 0.334922 0.211340 153 76 0
-0.229084 -0.602719 -0.132264 153 0 76
0.157184 -0.384726 0.384104 0 0 255
0.323128 -0.218499 0.392695 0 0 255
-0.442213 -0.330092 0.412484 0 0 255
-0.159118 -0.058094 0.384104 0 0 255
0.006227 -0.138808 0.126040 76 0 153
-0.449915 -0.228721 -0.097884 153 76 0
-0.449915 0.571732 0.205491 153 76 0
0.443543 -0.613106 -0.123395 76 0 153
0.337005 -0.157513 -0.412247 76 0 153
0.295897 -0.467721 -0.395065 76 0 153
-0.412072 -0.104444 0.309099 76 0 153
0.443543 0.469071 0.316891 76 0 153
-0.141328 -0.525414 0.378120 0 0 255
-0.290110 -0.104444 -0.102638 76 0 153
-0.472825 0.065748 -0.371410 153 76 0
0.151031 0.366178 0.378120 127 127 0
0.466452 0.190594 -0.253076 76 0 153
-0.472825 -0.471446 -0.212737 153 76 0
0.433166 -0.602719 -0.175013 153 0 76
-0.239805 0.714559 0.347747 0 255 0
0.466452 -0.245593 0.137164 76 0 153
0.228320 -0.458892 -0.412247 76 0 153
0.042205 0.044094 0.392695 0 0 255
-0.205605 -0.843977 -0.446611 127 0 127
-0.191389 -0.104444 -0.135287 76 0 153
0.343315 0.508642 -0.245074 76 0 153
-0.070070 -0.104444 -0.010295 76 0 153
-0.326628 0.494058 -0.080619 204 51 127
0.346086 0.092241 -0.412247 76 0 153
-0.219392 0.266971 0.392695 0 0 255
0.164042 -0.138808 0.002847 76 0 153
-0.472825 -0.582907 -0.060331 153 76 0
0.156680 0.657341 0.408254 76 0 153
-0.184679 -0.226932 -0.395065 76 0 153
0.360151 0.608604 0.110562 76 0 153
0.466452 0.577305 0.017856 76 0 153
-0.261776 -0.578096 0.378120 0 0 255
-0.340676 0.354424 0.343756 127 127 0
0.271392 -0.104444 -0.228284 76 0 153
0.037768 0.698748 0.378120 0 255 0
0.170058 0.490915 -0.263338 153 0 76
0.252646 -0.138808 -0.170021 76 0 153
-0.449915 0.392661 -0.102024 153 76 0
0.348401 0.358774 0.378120 0 0 255
0.327434 -0.602719 0.193954 153 0 76
0.331703 0.657286 -0.257037 127 0 127
0.374211 -0.138808 0.114955 76 0 153
-0.476973 0.586508 0.343756 0 0 255
0.188942 0.571809 -0.395065 76 0 153
0.466452 0.580234 0.324570 76 0 153
0.415645 0.680196 -0.029294 127 0 127
-0.444666 -0.235938 0.343756 0 0 255
0.392624 -0.271749 -0.412247 76 0 153
-0.449915 0.102315 -0.124792 153 76 0
0.174044 -0.104444 -0.256831 76 0 153
-0.321697 0.494619 -0.228974 153 0 76
0.309431 0.079393 0.384104 0 0 255
-0.449915 0.065915 -0.010366 153 76 0
-0.472825 0.208335 0.209146 153 76 0
-0.472825 0.582024 -0.350788 153 76 0
0.377679 0.547601 0.321932 76 0 153
-0.140705 0.533228 0.412484 76 0 153
0.457030 -0.529397 -0.446611 76 0 153
-0.449915 0.076990 0.208624 153 76 0
0.368725 0.657286 -0.225569 127 0 127
-0.472825 -0.572943 -0.306412 153 76 0
0.466452 -0.470040 -0.177302 76 0 153
-0.472825 0.243721 0.140208 153 76 0
0.103081 0.494058 0.095786 204 51 127
0.466452 -0.586376 0.204234 76 0 153
0.466452 -0.647371 -0.170476 76 0 153
-0.151221 -0.071433 -0.395065 76 0 153
-0.472825 -0.294341 -0.097300 153 76 0
-0.449915 -0.371225 -0.044834 153 76 0
-0.125068 -0.331587 0.384104 0 0 255
-0.252625 -0.602719 -0.059054 153 0 76
-0.368907 -0.559169 -0.412247 76 0 153
0.466452 0.067525 0.267251 76 0 153
-0.371106 -0.653352 -0.446611 127 0 127
-0.483200 -0.659992 0.366476 0 0 255
0.466452 0.638065 -0.036157 76 0 153
-0.449915 -0.529248 0.183415 153 76 0
0.443543 0.024924 -0.231821 76 0 153
-0.472825 -0.180853 0.236010 153 76 0
0.386323 -0.007454 -0.395065 76 0 153
-0.255264 -0.217389 0.384104 0 0 255
0.466452 0.259041 -0.161435 76 0 153
0.443543 0.110512 -0.124777 76 0 153
0.420145 0.534735 0.343756 204 51 127
0.309503 0.680196 -0.333320 127 0 127
-0.472825 0.416480 -0.412827 153 76 0
0.218921 -0.589280 0.412484 0 0 255
-0.472825 0.196050 -0.396297 153 76 0
0.329897 -0.432305 -0.412247 76 0 153
-0.449915 0.201612 0.158679 153 76 0
0.387999 -0.602719 0.292779 153 0 76
-0.105862 0.588234 0.412484 76 0 153
0.443543 -0.033699 -0.143791 76 0 153
-0.069721 0.677265 -0.412247 76 153 0
-0.483740 -0.470883 0.378120 0 0 255
0.353093 0.315202 0.412484 0 0 255
0.160564 -0.553451 0.412484 0 0 255
-0.371173 -0.104444 0.009774 76 0 153
-0.349688 0.476221 -0.017750 153 76 0
0.443543 0.324699 -0.272981 76 0 153
-0.323439 0.348012 0.376497 127 127 0
-0.168349 -0.465569 0.392695 0 0 255
-0.244663 -0.602719 -0.357834 153 0 76
-0.449915 0.089479 -0.064720 153 76 0
0.140923 -0.138808 -0.317161 76 0 153
-0.135502 0.356657 0.343756 127 127 0
0.444272 0.026474 0.343756 204 51 127
0.149557 0.472756 -0.228974 153 0 76
-0.281742 -0.591264 0.344369 255 0 0
0.342037 -0.564581 -0.395065 76 0 153
0.466452 0.545495 -0.320781 76 0 153
-0.467097 -0.171982 0.395737 0 0 255
0.443543 -0.384533 -0.118375 76 0 153
-0.272032 -0.002421 0.384104 0 0 255
-0.472825 0.669303 -0.181064 153 76 0
0.443543 0.432044 0.223440 76 0 153
0.443543 -0.257160 0.036030 76 0 153
-0.175223 -0.093143 0.384104 0 0 255
-0.279636 0.645832 0.359941 0 255 0
0.466452 -0.301271 -0.352864 76 0 153
-0.369989 0.038988 -0.412247 76 0 153
-0.288622 -0.104444 0.236492 76 0 153
-0.449915 0.031017 0.017085 153 76 0
-0.472825 -0.145609 0.065618 153 76 0
-0.427115 0.289826 0.412484 0 0 255
-0.044596 0.045403 -0.395065 76 0 153
0.443543 0.484219 0.023216 76 0 153
0.078412 0.662868 0.381029 76 0 153
0.139657 -0.104444 -0.099151 76 0 153
-0.343236 -0.104444 -0.039463 76 0 153
0.443543 0.277755 0.111153 76 0 153
0.078542 -0.198269 0.392695 0 0 255
0.252663 0.517056 -0.412247 76 0 153
0.358759 -0.019362 0.378120 0 0 255
-0.382965 -0.602719 -0.027710 153 0 76
0.466452 0.406261 0.251669 76 0 153
-0.384051 0.574556 0.320531 153 76 0
-0.398312 -0.622683 -0.412247 76 0 153
0.280740 0.140967 0.384104 0 0 255
0.390928 -0.602719 -0.114051 153 0 76
0.443543 -0.519391 0.030550 76 0 153
-0.357375 -0.392171 -0.395065 76 0 153
0.443543 0.357787 -0.308931 76 0 153
-0.232954 -0.322794 0.384104 0 0 255
-0.258651 0.373098 -0.395065 76 0 153
0.269662 -0.138808 -0.011827 76 0 153
0.048485 0.601031 -0.263338 153 0 76
0.466452 0.296547 0.085194 76 0 153
0.326480 -0.336414 -0.412247 76 0 153
-0.449915 0.183020 -0.243488 153 76 0
0.466452 0.064057 -0.322787 76 0 153
0.116794 -0.128224 0.343756 76 0 153
0.337694 -0.602719 0.271746 153 0 76
-0.390662 -0.282896 -0.412247 76 0 153
0.466452 -0.468010 -0.276071 76 0 153
0.193605 0.581585 0.378120 76 0 153
-0.439668 -0.047508 -0.395065 76 0 153
-0.384051 0.563610 -0.145610 153 76 0
0.326430 0.658806 0.378120 76 0 153
-0.416662 0.680196 -0.250507 0 127 127
0.333649 0.702778 0.343756 0 255 0
-0.337080 0.475616 0.378120 76 0 153
0.443543 0.508550 0.262317 76 0 153
-0.449915 -0.580190 -0.217840 153 76 0
-0.449915 0.353061 0.146888 153 76 0
-0.275423 0.494058 0.201978 204 51 127
-0.472825 -0.180006 -0.036428 153 76 0
0.004600 -0.138808 0.040349 76 0 153
-0.472825 0.454261 -0.324262 153 76 0
-0.455012 0.714559 -0.101806 153 76 0
0.443543 -0.112541 0.254419 76 0 153
0.197494 0.541251 -0.412247 76 0 153
0.443543 -0.444869 -0.121469 76 0 153
0.267562 0.607415 -0.263338 153 0 76
-0.117600 0.684638 -0.446611 76 153 0
-0.301769 -0.316872 0.384104 0 0 255
-0.449915 -0.627437 0.310911 153 76 0
-0.026581 0.608604 -0.237804 153 0 76
0.245275 -0.104444 -0.287095 76 0 153
0.466452 -0.098218 -0.406419 76 0 153
-0.249507 -0.533099 0.378120 0 0 255
-0.315079 0.383106 0.343756 127 127 0
-0.384051 0.574557 0.236145 153 76 0
-0.384039 -0.602719 -0.114445 153 0 76
-0.198833 -0.104444 -0.031007 76 0 153
0.086776 -0.104444 0.186459 76 0 153
-0.363972 0.471149 0.078848 153 76 0
-0.472825 0.676028 0.293857 153 76 0
-0.099317 0.714559 -0.445084 76 153 0
0.443543 0.631473 0.305874 76 0 153
0.466452 -0.734003 -0.126128 0 127 127
-0.329876 0.680196 0.140811 0 127 127
-0.472825 -0.368947 0.238415 153 76 0
0.240242 -0.104444 0.248073 76 0 153
-0.002180 -0.610727 0.389120 0 0 255
0.466452 0.358228 0.061516 76 0 153
0.082141 0.600678 -0.446611 76 153 0
-0.338057 -0.809075 0.234937 76 153 0
-0.472825 0.115359 -0.062695 153 76 0
-0.472825 -0.586620 0.001187 153 76 0
0.466452 0.349650 -0.410398 76 0 153
-0.449915 0.285489 0.307752 153 76 0
0.345708 0.680196 0.179619 127 0 127
0.477907 -0.155699 0.371055 204 51 127
0.095729 -0.275663 0.392695 0 0 255
0.221232 0.239480 -0.412247 76 0 153
-0.292308 -0.104444 -0.190884 76 0 153
0.432459 -0.162530 0.343756 204 51 127
-0.314833 -0.138808 0.324180 76 0 153
-0.383597 -0.138808 -0.095192 76 0 153
0.338874 0.657286 -0.074462 127 0 127
-0.458203 0.279314 -0.446611 153 76 0
-0.340663 0.657286 -0.195342 0 127 127
0.371448 0.128526 -0.412247 76 0 153
-0.362620 0.657286 -0.334470 0 127 127
0.195302 0.149771 -0.412247 76 0 153
0.075381 0.237265 0.384104 0 0 255
0.440484 0.699841 -0.446611 76 153 0
-0.400683 0.680196 0.129345 0 127 127
-0.054473 -0.104444 -0.092105 76 0 153
0.435474 -0.138808 0.152985 76 0 153
0.190315 -0.566978 0.378120 0 0 255
0.443543 0.569365 -0.028798 76 0 153
-0.271260 -0.602719 0.027853 153 0 76
0.111627 -0.602719 -0.176142 153 0 76
-0.376758 0.354582 0.378120 0 0 255
0.366465 -0.442601 -0.395065 76 0 153
0.210728 -0.394596 0.392695 0 0 255
-0.317590 -0.447787 -0.395065 76 0 153
-0.472825 0.614519 -0.412325 153 76 0
-0.294360 -0.849591 0.234937 76 153 0
0.322925 -0.523390 0.378120 0 0 255
-0.449915 0.067570 0.163612 153 76 0
-0.126583 0.020399 -0.412247 76 0 153
0.466452 0.106550 -0.183034 76 0 153
0.007983 -0.816205 -0.446611 127 0 127
-0.195248 -0.138808 -0.181680 76 0 153
-0.314114 -0.104444 -0.254542 76 0 153
-0.472825 -0.332549 -0.092413 153 76 0
0.351180 -0.743747 0.234937 76 153 0
0.418586 0.680196 -0.112251 127 0 127
-0.384051 0.596148 -0.124182 153 76 0
0.466452 -0.780731 0.003914 0 127 127
-0.297846 0.348012 0.347461 127 127 0
-0.356609 -0.305731 -0.395065 76 0 153
-0.449915 -0.652358 0.205344 153 76 0
0.305367 0.557121 0.412484 76 0 153
-0.289641 0.442499 -0.395065 76 0 153
0.348323 -0.138808 0.083604 76 0 153
0.257157 0.304225 0.412484 0 0 255
-0.289465 -0.104444 0.125216 76 0 153
-0.321436 -0.104444 0.069928 76 0 153
0.377679 0.474850 -0.157663 76 0 153
-0.451458 0.470551 0.378120 0 0 255
-0.160441 -0.138808 0.098602 76 0 153
0.466452 0.580011 0.072692 76 0 153
-0.449915 0.539577 0.291866 153 76 0
-0.151961 -0.852044 -0.446611 127 0 127
-0.472825 0.447430 0.331141 153 76 0
-0.297798 0.205666 -0.395065 76 0 153
0.058539 0.502231 -0.412247 76 0 153
-0.455064 -0.068743 0.343756 0 0 255
0.175969 0.677641 -0.412247 76 153 0
0.233086 0.174082 0.392695 0 0 255
0.284010 -0.248188 -0.412247 76 0 153
-0.180433 0.599461 -0.412247 76 0 153
0.443543 -0.512082 -0.153250 76 0 153
-0.075576 0.562292 -0.263338 153 0 76
-0.024380 0.257322 0.392695 0 0 255
-0.449915 0.433861 -0.365992 153 76 0
0.337049 -0.104444 -0.115930 76 0 153
0.200627 -0.602719 -0.138407 153 0 76
-0.400109 -0.138808 -0.272626 76 0 153
-0.153336 -0.602719 -0.125386 153 0 76
0.429018 -0.602719 -0.223062 153 0 76
0.413549 -0.138808 -0.079702 76 0 153
-0.472825 -0.803502 0.112021 127 127 0
-0.427061 -0.602719 -0.333993 153 0 76
0.343895 -0.138808 0.240972 76 0 153
0.466452 -0.653352 0.149300 76 0 153
-0.449915 -0.042562 -0.335883 153 76 0
0.062555 -0.591264 0.352900 255 0 0
0.193728 0.249009 0.384104 0 0 255
-0.439656 0.681328 -0.446611 76 153 0
0.443543 0.665003 -0.015126 76 0 153
-0.231867 0.523384 0.378120 76 0 153
0.443543 0.042365 -0.029035 76 0 153
-0.418146 -0.547664 0.343756 0 0 255
0.104273 -0.602719 -0.305546 153 0 76
-0.472825 -0.312569 -0.351067 153 76 0
0.163014 -0.047764 -0.412247 76 0 153
-0.472825 0.601705 0.092137 153 76 0
-0.472825 -0.510282 0.280000 153 76 0
0.443543 -0.063754 0.249840 76 0 153
0.443543 -0.297078 0.150621 76 0 153
0.233652 -0.293526 0.384104 0 0 255
0.258063 0.250275 0.392695 0 0 255
-0.185571 0.502649 0.071698 204 51 127
0.410655 -0.580560 -0.412247 76 0 153
0.443543 -0.270910 0.238731 76 0 153
-0.413269 -0.104444 -0.378191 76 0 153
0.234429 -0.373212 -0.395065 76 0 153
0.355620 0.680196 -0.378027 127 0 127
0.417147 -0.634039 -0.446611 127 0 127
0.223006 -0.841267 -0.446611 127 0 127
-0.472825 -0.708380 -0.370111 127 127 0
0.466452 0.065232 -0.075124 76 0 153
-0.404320 0.162586 -0.412247 76 0 153
-0.449915 -0.199896 -0.304811 153 76 0
-0.323263 0.234214 0.384104 0 0 255
-0.472825 0.398243 -0.169831 153 76 0
-0.449915 -0.548493 -0.097808 153 76 0
-0.449915 -0.650051 -0.119926 153 76 0
0.466452 -0.186761 0.110831 76 0 153
-0.449915 -0.625181 -0.347286 153 76 0
-0.072218 0.390064 0.378120 127 127 0
-0.484279 0.154065 0.351273 0 0 255
0.393201 -0.403654 -0.395065 76 0 153
0.278558 -0.565818 0.378120 0 0 255
0.466452 0.533213 -0.070091 76 0 153
0.049066 0.478288 0.378120 76 0 153
0.034828 0.598586 0.412484 76 0 153
-0.126440 0.445608 -0.412247 76 0 153
0.054369 -0.047802 -0.395065 76 0 153
0.283783 0.641671 -0.395065 76 0 153
0.026665 -0.634114 0.378120 255 0 0
-0.336729 -0.104444 0.343136 76 0 153
0.466452 -0.863260 -0.305094 0 127 127
-0.111449 0.345692 0.412484 0 0 255
0.249275 0.003083 -0.412247 76 0 153
0.115359 0.230073 -0.412247 76 0 153
-0.432171 -0.138808 -0.240607 76 0 153
0.466452 0.448307 0.097314 76 0 153
-0.224920 -0.104444 -0.179215 76 0 153
0.398402 -0.138808 -0.295514 76 0 153
0.186631 -0.602719 -0.207108 153 0 76
0.466452 -0.476727 -0.210834 76 0 153
-0.449915 0.031272 -0.422397 153 76 0
-0.449915 0.084714 -0.293652 153 76 0
-0.472825 -0.590006 0.326337 153 76 0
-0.253225 0.489582 0.412484 76 0 153
-0.401868 0.312811 0.378120 0 0 255
0.413623 -0.048003 0.343756 204 51 127
-0.357556 0.608604 0.283234 153 76 0
-0.078278 -0.138808 -0.303699 76 0 153
0.130998 -0.657739 0.378120 255 0 0
-0.248360 -0.045721 0.392695 0 0 255
-0.449915 -0.442101 -0.351010 153 76 0
-0.460272 0.275318 0.378120 0 0 255
-0.449915 -0.293051 0.027370 153 76 0
0.443543 0.314786 -0.115601 76 0 153
-0.267253 -0.194292 -0.395065 76 0 153
-0.096181 0.297494 -0.395065 76 0 153
0.058098 0.571932 0.343756 76 0 153
0.242958 -0.523213 0.400750 0 0 255
0.443543 0.222608 0.036105 76 0 153
-0.106673 0.057691 0.392695 0 0 255
-0.080884 -0.104444 0.228707 76 0 153
0.466452 0.280820 0.016316 76 0 153
0.466452 -0.549287 0.193758 76 0 153
-0.449915 -0.244242 -0.050870 153 76 0
0.365712 0.396856 -0.395065 76 0 153
0.457097 -0.124113 0.378120 204 51 127
-0.043419 -0.602719 0.252604 153 0 76
0.026673 0.231739 0.392695 0 0 255
-0.029612 0.386670 0.343756 127 127 0
0.096303 0.594282 -0.228974 153 0 76
-0.472825 0.436949 -0.157534 153 76 0
-0.449915 -0.401922 -0.397694 153 76 0
-0.089433 0.550663 0.378120 76 0 153
-0.391123 0.680196 0.261838 0 127 127
0.150408 0.502649 0.073677 204 51 127
0.434947 0.019234 -0.395065 76 0 153
-0.366063 -0.138808 0.217900 76 0 153
0.466452 -0.731705 0.035194 0 127 127
-0.435237 0.607204 0.404974 76 0 153
0.466452 -0.248203 -0.294177 76 0 153
0.297667 -0.111506 0.384104 0 0 255
-0.099569 0.502649 0.230217 204 51 127
0.393991 0.581958 0.412484 76 0 153
-0.449915 -0.293033 0.101077 153 76 0
-0.017304 -0.596992 -0.416012 127 0 127
-0.472825 0.712247 0.095928 153 76 0
-0.412592 0.573240 0.378120 76 0 153
0.466452 0.469793 0.167954 76 0 153
-0.120824 0.714179 -0.412247 76 153 0
0.345614 0.471149 -0.031337 76 0 153
0.443543 0.491666 -0.310272 76 0 153
-0.042934 -0.602719 -0.048964 153 0 76
-0.225683 0.648135 -0.446611 76 153 0
-0.229529 -0.104444 0.235328 76 0 153
-0.472825 -0.144157 -0.364412 153 76 0
0.229637 -0.751702 -0.446611 127 0 127
0.328848 -0.822191 0.234937 76 153 0
-0.203698 0.603003 -0.228974 153 0 76
-0.449915 0.458235 0.191581 153 76 0
-0.472825 0.134690 -0.012318 153 76 0
-0.134056 -0.116467 0.384104 0 0 255
0.466452 -0.687525 0.194461 0 127 127
-0.163981 -0.138808 -0.018028 76 0 153
-0.152066 0.254700 0.392695 0 0 255
0.214605 0.577104 -0.427719 76 153 0
-0.218835 0.502649 0.270001 204 51 127
0.371326 -0.627493 0.234937 76 153 0
-0.474763 0.071007 0.343756 0 0 255
-0.319279 0.680196 -0.035714 0 127 127
0.443543 0.083891 0.146574 76 0 153
-0.472825 -0.664843 0.045061 127 127 0
0.316637 -0.583104 -0.412247 76 0 153
-0.472825 0.029362 -0.254323 153 76 0
-0.449915 0.108834 0.136516 153 76 0
0.366813 -0.602719 -0.245066 153 0 76
0.466452 -0.118675 -0.438079 76 0 153
0.377679 0.561550 0.228016 76 0 153
-0.333843 0.256487 -0.412247 76 0 153
-0.153786 -0.016599 -0.412247 76 0 153
-0.272088 0.577104 -0.435442 76 153 0
-0.449915 -0.039450 0.031965 153 76 0
0.211101 -0.138808 -0.253168 76 0 153
0.392247 -0.104444 0.340205 76 0 153
-0.441326 -0.104444 -0.109680 76 0 153
0.466452 -0.588382 -0.066540 76 0 153
0.037580 -0.104444 0.091845 76 0 153
-0.331263 0.391564 0.378120 127 127 0
-0.233830 0.558472 0.343756 76 0 153
0.202129 -0.435923 -0.412247 76 0 153
0.443543 -0.619211 0.305405 76 0 153
0.225155 0.458486 0.412484 76 0 153
-0.449915 -0.322561 0.255461 153 76 0
-0.449915 0.176386 -0.103516 153 76 0
0.042245 0.502649 0.151397 204 51 127
-0.449915 -0.043399 -0.210354 153 76 0
-0.356958 -0.104444 0.066796 76 0 153
0.443543 -0.557651 -0.034807 76 0 153
0.288879 0.468900 -0.395065 76 0 153
-0.127788 -0.104444 -0.076515 76 0 153
-0.369264 -0.138808 -0.380696 76 0 153
0.140964 0.694864 0.378120 0 255 0
-0.449915 0.425040 -0.441774 153 76 0
-0.332070 -0.104444 0.182989 76 0 153
0.176518 -0.132596 0.392695 0 0 255
0.443514 -0.506610 0.378120 204 51 127
-0.472825 0.150348 -0.174217 153 76 0
0.266498 0.130817 -0.395065 76 0 153
0.207749 -0.203401 0.384104 0 0 255
0.159520 0.706210 -0.446611 76 153 0
-0.432137 -0.104444 -0.266913 76 0 153
-0.237249 0.591319 0.378120 76 0 153
-0.449915 -0.378108 0.112433 153 76 0
0.385701 -0.630843 0.343756 255 0 0
0.409179 -0.591342 0.359644 204 51 127
0.131734 -0.215711 -0.412247 76 0 153
0.477907 -0.483016 0.372742 204 51 127
0.081578 0.271172 0.397907 0 0 255
-0.030975 -0.753276 0.234937 76 153 0
-0.472825 -0.068945 -0.372923 153 76 0
-0.246371 -0.602719 0.283453 153 0 76
-0.351541 0.447509 0.412484 76 0 153
-0.312594 0.680196 -0.113230 0 127 127
0.466452 0.613241 0.021203 76 0 153
0.102433 -0.602719 0.127241 153 0 76
0.290387 -0.539328 -0.395065 76 0 153
0.443543 0.489754 -0.412124 76 0 153
0.348476 0.064967 0.407472 0 0 255
0.456555 -0.497879 0.343756 204 51 127
-0.472825 0.668107 0.039887 153 76 0
-0.017049 0.298805 -0.412247 76 0 153
0.147619 0.471149 0.349929 76 0 153
0.039357 0.615782 -0.446611 76 153 0
0.310539 0.657286 0.059508 127 0 127
-0.391125 0.289443 -0.412247 76 0 153
0.443543 -0.256827 -0.196977 76 0 153
-0.472825 0.240765 0.305854 153 76 0
-0.114076 0.132973 -0.395065 76 0 153
0.349132 0.194287 0.378120 0 0 255
0.443543 0.644351 -0.201836 76 0 153
0.238675 -0.491024 -0.395065 76 0 153
-0.449915 -0.266106 -0.389908 153 76 0
-0.395281 0.127994 -0.412247 76 0 153
0.446534 0.714559 0.001342 76 0 153
-0.449915 0.391100 0.104686 153 76 0
0.217030 0.088730 -0.412247 76 0 153
0.119273 -0.607701 0.404504 0 0 255
-0.472825 -0.730361 0.032366 127 127 0
0.163097 0.314111 -0.395065 76 0 153
-0.369301 -0.602719 0.062110 153 0 76
-0.449915 0.582587 -0.112105 153 76 0
0.466452 -0.204817 -0.242441 76 0 153
0.354149 0.471149 0.340437 76 0 153
0.353585 -0.138808 0.311667 76 0 153
-0.472825 -0.011099 -0.340269 153 76 0
-0.413054 0.356466 0.407086 0 0 255
-0.196683 0.150435 0.384104 0 0 255
0.378549 0.680196 -0.343190 127 0 127
-0.449915 -0.220322 0.153134 153 76 0
0.154008 0.595155 -0.412247 76 0 153
-0.188197 0.485073 0.378120 76 0 153
-0.252359 -0.417793 0.392695 0 0 255
0.100423 0.502649 -0.144274 204 51 127
0.443543 -0.428772 0.266226 76 0 153
-0.011861 -0.084584 -0.395065 76 0 153
-0.448044 0.241308 -0.412247 76 0 153
-0.449915 0.417725 0.053583 153 76 0
0.053832 -0.602719 0.203600 153 0 76
-0.366870 -0.002964 0.395658 0 0 255
-0.261372 -0.138808 -0.176313 76 0 153
0.439100 -0.625185 -0.395065 76 0 153
0.064503 0.236542 -0.395065 76 0 153
-0.331096 -0.370881 0.392695 0 0 255
0.466452 0.554072 -0.101743 76 0 153
-0.467541 0.506992 0.378120 0 0 255
-0.449915 -0.456243 -0.414430 153 76 0
-0.196719 -0.531533 -0.395065 76 0 153
-0.010464 -0.576996 0.378120 0 0 255
0.376357 -0.138808 -0.115743 76 0 153
0.466452 -0.220675 -0.431949 76 0 153
0.343315 0.499698 -0.137556 76 0 153
-0.449915 0.018288 0.128903 153 76 0
0.466452 -0.597883 -0.412171 76 0 153
-0.472825 0.289928 0.145288 153 76 0
0.113505 0.409729 0.343756 127 127 0
-0.413111 -0.138808 -0.118919 76 0 153
0.034602 0.494058 -0.162650 204 51 127
-0.472825 -0.288406 0.266463 153 76 0
-0.416553 0.005824 0.343756 0 0 255
0.439766 0.574652 0.378120 204 51 127
-0.472825 -0.473030 0.199975 153 76 0
-0.018663 -0.602719 0.118151 153 0 76
-0.290221 0.207728 0.384104 0 0 255
0.137201 -0.746448 -0.446611 127 0 127
-0.449915 -0.064235 -0.031633 153 76 0
0.466452 0.201840 -0.419020 76 0 153
0.443543 -0.401083 0.343484 76 0 153
-0.376161 0.657286 0.159768 0 127 127
0.073971 -0.105985 -0.412247 76 0 153
-0.245951 -0.169205 0.392695 0 0 255
-0.449915 -0.636180 -0.026204 153 76 0
0.466452 -0.442035 -0.080221 76 0 153
0.419332 0.657286 -0.079589 127 0 127
0.443543 0.248095 -0.206862 76 0 153
-0.100076 -0.345613 -0.395065 76 0 153
0.333519 0.657286 0.200825 127 0 127
0.466452 -0.047360 0.101953 76 0 153
0.297718 0.502649 0.064677 204 51 127
-0.449915 -0.300625 -0.375133 153 76 0
0.435372 -0.104444 -0.057959 76 0 153
-0.239392 -0.434334 -0.412247 76 0 153
-0.079710 0.494058 -0.114193 204 51 127
0.409179 -0.291232 0.345975 204 51 127
-0.254593 -0.138808 -0.051194 76 0 153
-0.450044 0.217617 0.407472 0 0 255
0.443543 -0.186599 0.258387 76 0 153
-0.262613 -0.749326 0.234937 76 153 0
0.466452 0.356627 0.208477 76 0 153
-0.147235 0.108797 0.392695 0 0 255
-0.042126 -0.138808 0.046987 76 0 153
-0.449915 -0.172346 0.115871 153 76 0
0.293269 0.628942 0.378120 76 0 153
0.343315 0.473343 0.112093 76 0 153
-0.415552 -0.437518 0.355273 0 0 255
-0.449915 0.283398 -0.082592 153 76 0
-0.063304 0.616638 -0.446611 76 153 0
-0.034474 0.086375 0.384104 0 0 255
-0.242312 0.051948 -0.412247 76 0 153
-0.472825 -0.771792 -0.201058 127 127 0
-0.380857 -0.360367 0.406990 0 0 255
0.106341 0.037808 0.384104 0 0 255
-0.033067 -0.536273 -0.395065 76 0 153
0.466452 -0.659608 0.316793 76 0 153
0.443543 0.678617 0.126978 76 0 153
-0.472825 -0.086371 0.149907 153 76 0
0.188960 -0.602719 0.254124 153 0 76
0.383712 0.348012 0.377242 127 127 0
-0.120258 0.494058 -0.128023 204 51 127
0.443543 0.387361 -0.129971 76 0 153
-0.278941 -0.633529 -0.446611 127 0 127
0.293390 0.494058 -0.197622 204 51 127
0.466452 -0.085802 0.070962 76 0 153
-0.449915 -0.233598 -0.003355 153 76 0
-0.367875 -0.311923 0.378120 0 0 255
0.466452 -0.614196 -0.324166 76 0 153
-0.449915 -0.296067 -0.018457 153 76 0
-0.449915 -0.599317 0.214109 153 76 0
0.433348 -0.602719 -0.364044 153 0 76
0.291463 -0.138808 -0.213280 76 0 153
0.466452 0.563324 -0.414955 76 0 153
-0.449915 -0.281952 0.150768 153 76 0
0.029589 -0.468615 0.392695 0 0 255
0.388709 -0.462396 -0.412247 76 0 153
0.327501 0.680196 -0.206034 127 0 127
0.409273 -0.554120 0.407885 0 0 255
-0.449915 -0.481673 -0.036836 153 76 0
0.466452 0.384928 -0.301946 76 0 153
0.466452 0.403717 0.057676 76 0 153
-0.176365 0.502649 0.321277 204 51 127
-0.383793 0.225025 0.407472 0 0 255
-0.000426 -0.602719 -0.314753 153 0 76
0.205280 -0.104444 -0.322623 76 0 153
0.443543 -0.484894 -0.020059 76 0 153
0.342352 -0.402909 0.404407 0 0 255
0.343315 0.550684 -0.022583 76 0 153
-0.258457 0.292836 0.407472 0 0 255
0.466452 -0.133957 -0.081217 76 0 153
-0.449915 -0.425384 0.166155 153 76 0
0.428233 0.649088 0.385667 76 0 153
0.227138 0.172455 -0.395065 76 0 153
0.116274 -0.549488 0.378120 0 0 255
-0.318025 -0.566105 0.412484 0 0 255
0.343315 0.582579 0.008742 76 0 153
0.335269 0.680196 -0.115485 127 0 127
-0.291212 -0.729403 -0.446611 127 0 127
-0.402992 -0.407547 0.412484 0 0 255
0.114062 -0.095588 -0.412247 76 0 153
0.343315 0.566095 0.074360 76 0 153
-0.081807 -0.602719 -0.281426 153 0 76
0.230461 0.340510 -0.395065 76 0 153
-0.095217 -0.602719 -0.182806 153 0 76
0.463668 0.455933 0.343756 204 51 127
-0.250623 -0.104444 0.062748 76 0 153
-0.472825 -0.142791 -0.084146 153 76 0
0.466452 0.308960 0.213704 76 0 153
-0.044612 0.398053 -0.412247 76 0 153
0.321423 -0.621657 0.378120 255 0 0
-0.140395 -0.241645 -0.412247 76 0 153
0.061692 -0.138808 0.154824 76 0 153
0.419487 0.240153 -0.412247 76 0 153
0.466452 -0.137051 -0.029054 76 0 153
0.231553 0.523491 0.412484 153 0 76
0.375660 0.402504 0.407505 76 0 153
-0.381242 0.680196 -0.385871 0 127 127
0.443543 -0.095964 0.225716 76 0 153
-0.449915 0.024432 -0.315743 153 76 0
0.443543 -0.390455 -0.008475 76 0 153
-0.269522 0.566165 0.378120 76 0 153
0.466452 -0.342081 -0.385591 76 0 153
-0.039597 0.513764 0.378120 76 0 153
-0.449915 -0.386574 -0.186352 153 76 0
0.443543 0.133877 0.293944 76 0 153
-0.210910 0.403262 0.407713 76 0 153
0.214955 -0.579699 -0.395065 76 0 153
0.051738 -0.552696 0.378120 0 0 255
0.145712 -0.554210 -0.412247 76 0 153
-0.174265 -0.422235 -0.412247 76 0 153
-0.188592 0.482454 -0.412247 76 0 153
0.171044 -0.629134 0.234937 76 153 0
-0.332818 -0.602719 0.218198 153 0 76
0.236561 -0.602719 -0.357440 153 0 76
0.162801 0.357949 -0.395065 76 0 153
-0.360001 0.528692 0.412484 76 0 153
0.388292 0.646405 0.343756 0 255 0
-0.202943 0.712307 -0.446611 76 153 0
-0.349688 0.473857 -0.181089 153 76 0
0.466452 0.016590 -0.152775 76 0 153
-0.032779 -0.602719 -0.148851 153 0 76
-0.371038 0.489898 -0.412247 76 0 153
0.423200 -0.551850 -0.395065 76 0 153
0.132923 -0.280084 -0.395065 76 0 153
-0.189375 0.191868 0.392695 0 0 255
0.466452 -0.634494 0.028781 76 0 153
-0.054581 -0.280131 0.384104 0 0 255
-0.074084 0.471149 -0.255874 153 0 76
-0.133852 0.098254 -0.412247 76 0 153
0.126262 -0.081310 0.384104 0 0 255
-0.398897 0.013673 0.412484 0 0 255
0.037381 -0.138808 0.216407 76 0 153
0.443543 0.180569 -0.043398 76 0 153
0.466452 0.109616 -0.217552 76 0 153
-0.207460 -0.646891 0.378120 255 0 0
0.130136 -0.602719 -0.360806 153 0 76
0.466452 -0.050774 -0.046659 76 0 153
0.443543 -0.542898 -0.318326 76 0 153
0.466452 0.147409 -0.065832 76 0 153
0.269811 0.541503 -0.228974 153 0 76
-0.147182 0.655148 0.378120 76 0 153
0.094772 -0.138808 -0.077990 76 0 153
-0.360459 0.657286 0.110949 0 127 127
-0.027499 0.548978 -0.412247 76 0 153
-0.324507 0.609272 -0.446611 76 153 0
0.477907 0.148567 0.346916 204 51 127
0.443543 -0.482738 -0.341022 76 0 153
-0.472825 -0.438682 -0.209086 153 76 0
-0.165101 0.346973 -0.395065 76 0 153
-0.094628 -0.316932 0.384104 0 0 255
0.466452 -0.214395 0.013193 76 0 153
0.443543 -0.494860 -0.389074 76 0 153
0.466452 0.435158 0.047819 76 0 153
-0.435357 -0.104444 -0.353756 76 0 153
0.308450 -0.654194 -0.446611 127 0 127
-0.345214 -0.602719 -0.314733 153 0 76
-0.319416 -0.402068 0.384104 0 0 255
0.208094 0.665676 0.343756 0 255 0
0.282392 0.681997 0.343756 0 255 0
-0.422611 -0.314276 -0.395065 76 0 153
-0.118648 0.480509 0.378120 76 0 153
0.400830 -0.602719 -0.059091 153 0 76
-0.234164 -0.602719 -0.197598 153 0 76
0.258863 0.639930 0.378120 76 0 153
0.466452 0.127759 -0.339074 76 0 153
0.236744 0.713418 0.343756 0 255 0
0.443543 -0.411333 -0.037114 76 0 153
-0.384051 0.565456 0.107055 153 76 0
-0.298676 0.500032 -0.263338 153 0 76
0.195776 0.525675 -0.228974 153 0 76
-0.152269 -0.019572 0.384104 0 0 255
0.443543 0.520104 0.205536 76 0 153
-0.472825 -0.623294 0.006379 153 76 0
-0.387895 -0.087250 0.378120 0 0 255
0.417330 0.326151 0.378120 0 0 255
0.466452 0.007825 -0.345204 76 0 153
-0.287035 0.594020 0.412484 76 0 153
0.466452 0.244672 -0.113490 76 0 153
-0.207738 0.508327 0.412484 76 0 153
-0.449915 0.563301 -0.066000 153 76 0
-0.193148 0.295353 -0.395065 76 0 153
0.112625 -0.104444 -0.224979 76 0 153
-0.269159 0.270694 0.383624 0 0 255
-0.449915 0.287888 0.081906 153 76 0
-0.028168 0.653683 0.378120 76 0 153
-0.065896 0.501221 0.343756 76 0 153
0.477907 0.692934 0.376048 204 51 127
0.343315 0.479184 0.203943 76 0 153
0.443543 -0.494167 -0.059801 76 0 153
0.466452 0.252498 -0.072595 76 0 153
0.251864 -0.057942 0.392695 0 0 255
-0.107691 -0.602719 0.166634 153 0 76
-0.163340 0.556999 0.412484 76 0 153
0.466452 0.138420 -0.234066 76 0 153
-0.052318 -0.138808 -0.279250 76 0 153
-0.472825 -0.758393 -0.098422 127 127 0
0.245470 -0.104444 0.008198 76 0 153
-0.246683 0.623255 0.378120 76 0 153
0.130534 -0.529303 -0.395065 76 0 153
0.101615 -0.628508 0.378120 255 0 0
-0.414520 0.657286 0.260041 0 127 127
-0.028053 -0.138808 -0.122010 76 0 153
-0.019548 -0.602719 0.013067 153 0 76
-0.472825 -0.214417 -0.365733 153 76 0
0.313555 -0.054394 0.384104 0 0 255
0.024877 0.327399 -0.412247 76 0 153
0.313373 0.280071 0.401189 0 0 255
0.466452 0.256905 0.306268 76 0 153
-0.449915 -0.132357 -0.053403 153 76 0
-0.265199 -0.572245 -0.395065 76 0 153
0.100289 0.494058 -0.038249 204 51 127
0.466452 0.484251 0.054982 76 0 153
-0.472825 -0.091085 0.054566 153 76 0
-0.238564 0.385848 0.343756 127 127 0
0.037942 -0.357058 -0.395065 76 0 153
-0.238933 -0.138808 0.202919 76 0 153
-0.201805 -0.534988 0.407472 0 0 255
-0.449915 -0.306809 -0.156787 153 76 0
0.272491 -0.173410 0.392695 0 0 255
-0.109580 -0.382510 0.392695 0 0 255
-0.086075 -0.848608 -0.446611 127 0 127
-0.265823 -0.138808 -0.358559 76 0 153
-0.164906 0.583234 -0.263338 153 0 76
0.355305 0.591339 0.378120 76 0 153
-0.472825 -0.439163 -0.323397 153 76 0
0.333564 0.205774 -0.395065 76 0 153
-0.472825 -0.376815 0.197709 153 76 0
-0.449915 -0.177986 0.006168 153 76 0
-0.472825 -0.363034 -0.409971 153 76 0
-0.472825 -0.759239 0.149379 127 127 0
0.466452 0.312002 0.043687 76 0 153
-0.472825 -0.864068 0.061900 127 127 0
-0.452291 -0.393385 0.378120 0 0 255
-0.052218 -0.530414 0.407472 0 0 255
-0.133171 -0.137740 -0.412247 76 0 153
0.443543 0.507524 -0.264173 76 0 153
0.466452 -0.225224 0.244133 76 0 153
0.343315 0.471570 0.295446 76 0 153
-0.075767 -0.104444 0.125660 76 0 153
0.388183 -0.104456 0.412484 0 0 255
0.443543 -0.204983 0.209203 76 0 153
-0.025262 0.494058 -0.153325 204 51 127
0.443543 -0.038151 0.218951 76 0 153
-0.449915 0.634410 -0.324933 153 76 0
-0.449915 -0.064923 0.279172 153 76 0
0.466452 -0.512937 -0.355387 76 0 153
0.371892 -0.618631 0.378120 255 0 0
-0.158634 0.461064 0.412484 76 0 153
-0.438682 0.250374 0.378120 0 0 255
-0.449915 -0.543444 -0.345764 153 76 0
-0.449156 -0.104444 -0.027545 76 0 153
-0.136377 0.679242 0.343756 0 255 0
0.093938 0.705160 0.343756 0 255 0
0.295164 -0.831041 -0.446611 127 0 127
0.027353 -0.597279 -0.395065 76 0 153
-0.472825 -0.065779 0.015508 153 76 0
-0.472825 -0.815089 -0.375277 127 127 0
-0.449915 0.330317 -0.016722 153 76 0
-0.130148 -0.602719 -0.157245 153 0 76
0.466452 0.269832 0.203088 76 0 153
0.139125 0.456273 0.378120 76 0 153
0.033523 -0.602719 0.266555 153 0 76
-0.296082 -0.659755 0.378120 255 0 0
-0.059450 -0.138808 0.340553 76 0 153
-0.410867 0.657286 -0.177684 0 127 127
0.417474 0.700718 0.343756 204 51 127
0.466452 0.337368 -0.350517 76 0 153
-0.349198 -0.512344 0.384104 0 0 255
-0.316944 -0.524723 0.404944 0 0 255
-0.084470 -0.483337 0.384104 0 0 255
0.443543 0.097280 -0.080274 76 0 153
-0.472825 -0.601340 0.159858 153 76 0
-0.467022 -0.695309 0.234937 127 127 0
0.300079 -0.104444 -0.249423 76 0 153
-0.472825 0.464213 0.300406 153 76 0
-0.174922 0.608604 0.376918 76 0 153
-0.231634 0.434725 0.378120 76 0 153
-0.016348 0.661256 -0.412247 76 153 0
-0.179406 -0.192332 0.384104 0 0 255
-0.450903 0.398495 0.378120 0 0 255
0.127963 -0.138808 0.315113 76 0 153
-0.406450 -0.246243 -0.395065 76 0 153
0.399004 -0.336527 -0.395065 76 0 153
-0.037425 0.349466 0.378120 127 127 0
-0.350114 0.471149 -0.141502 153 76 0
-0.240270 -0.691001 0.234937 76 153 0
0.081897 -0.104444 0.050207 76 0 153
-0.191348 0.645832 0.346361 0 255 0
-0.472825 0.315961 0.021824 153 76 0
0.068614 0.321498 -0.395065 76 0 153
0.162905 0.534603 -0.395065 76 0 153
0.466452 -0.154879 -0.199674 76 0 153
-0.233652 -0.138808 0.093461 76 0 153
0.384891 -0.659992 0.370607 255 0 0
0.448326 0.209576 0.343756 204 51 127
0.443543 0.463474 0.134445 76 0 153
0.088991 -0.382743 0.384104 0 0 255
0.443543 0.612679 -0.412635 76 0 153
0.151906 0.502649 0.147354 204 51 127
-0.384051 0.491983 0.208167 153 76 0
0.443543 -0.073513 -0.063235 76 0 153
-0.472825 0.471092 0.210568 153 76 0
-0.356932 0.633870 0.412484 76 0 153
-0.370927 0.293673 0.408338 0 0 255
-0.384051 0.541602 0.327695 153 76 0
0.191910 0.502649 0.198987 204 51 127
-0.472825 -0.128185 0.006677 153 76 0
-0.314063 0.015536 -0.395065 76 0 153
0.466452 0.407892 0.025551 76 0 153
-0.000747 -0.404821 -0.412247 76 0 153
-0.340453 0.557762 0.378120 76 0 153
-0.128417 0.393831 0.400132 76 0 153
-0.190699 -0.772966 -0.446611 127 0 127
0.443543 0.103950 0.191969 76 0 153
0.032402 0.373791 0.343756 127 127 0
-0.078259 0.474223 0.412484 76 0 153
-0.472825 -0.351481 0.065381 153 76 0
