ply
format ascii 1.0
element vertex 1273
property float x
property float y
property float z
property uchar red
property uchar green
property uchar blue
end_header
0.412863 0.535183 0.378120 76 0 153
0.129159 -0.602719 0.309670 153 0 76
0.466452 0.216244 0.084964 76 0 153
0.466452 0.261270 0.145545 76 0 153
-0.349688 0.575086 -0.011516 153 76 0
-0.472825 -0.224800 -0.100848 153 76 0
-0.174632 0.502649 0.047600 204 51 127
0.377679 0.548524 0.102116 76 0 153
-0.384051 0.551510 -0.203027 153 76 0
0.362024 -0.138808 0.252340 76 0 153
-0.449915 -0.647498 -0.423447 153 76 0
-0.449915 -0.645717 -0.161719 153 76 0
-0.351688 0.436523 0.378120 76 0 153
-0.169847 0.291460 0.407472 0 0 255
-0.082888 0.602692 0.343756 76 0 153
-0.387594 0.551510 -0.412247 76 0 153
0.055781 -0.760780 0.234937 76 153 0
-0.239372 -0.165523 0.384104 0 0 255
-0.236204 -0.474873 0.384104 0 0 255
-0.449915 0.401532 -0.418094 153 76 0
0.377679 0.504930 0.038255 76 0 153
0.443278 0.680196 -0.287908 76 0 153
0.458091 0.308369 0.378120 204 51 127
0.443274 0.103950 0.378120 204 51 127
0.388041 -0.286375 0.412484 0 0 255
-0.449915 0.458186 0.273970 153 76 0
-0.118507 -0.281880 0.392695 0 0 255
0.319258 0.577104 -0.440298 76 153 0
0.309830 -0.191655 -0.395065 76 0 153
-0.154122 -0.602719 -0.237612 153 0 76
0.195052 0.605203 -0.446611 76 153 0
0.466452 -0.197450 -0.341446 76 0 153
-0.472545 0.383379 0.378120 0 0 255
0.032411 0.337399 0.378120 0 0 255
0.405586 0.657286 0.279751 127 0 127
0.182386 -0.104444 -0.295253 76 0 153
-0.449915 -0.592283 -0.088761 153 0 76
0.054780 0.001197 -0.395065 76 0 153
-0.078465 -0.281996 0.392695 0 0 255
-0.449915 0.060787 -0.354608 153 76 0
0.435299 0.714559 -0.424290 76 153 0
-0.472825 0.446661 -0.004669 153 76 0
-0.155530 0.628580 -0.412247 76 0 153
-0.472825 0.127080 -0.371890 153 76 0
-0.472825 0.211420 0.204397 153 76 0
-0.472825 0.364756 0.121571 153 76 0
-0.449915 -0.167251 0.095154 153 76 0
0.306088 0.666638 -0.104338 127 0 127
-0.472825 -0.318178 -0.216264 153 76 0
0.129455 -0.624187 -0.395065 76 0 153
-0.294115 0.292009 0.378120 0 0 255
0.154822 -0.188376 0.384104 0 0 255
0.343315 0.478813 0.277940 76 0 153
-0.359803 0.471149 0.039770 153 76 0
0.411177 0.657286 -0.256983 127 0 127
0.004672 -0.551022 -0.395065 76 0 153
0.418292 -0.138808 0.101448 76 0 153
0.222007 -0.104444 0.208354 76 0 153
0.421016 0.178165 0.378120 0 0 255
-0.139114 0.494058 0.092050 204 51 127
-0.099093 -0.301924 -0.412247 76 0 153
0.286556 0.504048 -0.395065 76 0 153
-0.110878 0.291840 -0.412247 76 0 153
0.203090 -0.104444 0.271321 76 0 153
-0.449915 0.256293 0.207757 153 76 0
-0.445788 0.680196 0.100606 0 127 127
-0.449915 0.387180 -0.188471 153 76 0
0.203737 -0.138808 0.172978 76 0 153
-0.450356 -0.286003 -0.446611 153 76 0
0.466452 0.161679 0.177778 76 0 153
0.339707 0.657286 -0.199301 127 0 127
0.466452 -0.159255 0.222946 76 0 153
-0.472825 0.254002 -0.020531 153 76 0
0.466452 -0.190221 0.087289 76 0 153
-0.449915 -0.451581 0.048851 153 76 0
-0.279981 0.593756 -0.228974 153 0 76
0.466452 -0.514531 -0.052239 76 0 153
0.463682 0.714559 -0.171345 76 0 153
0.466452 -0.082456 0.324045 76 0 153
-0.472825 0.322793 0.184317 153 76 0
0.443543 -0.297719 -0.212767 76 0 153
-0.096593 -0.604959 0.406155 0 0 255
-0.034532 -0.459456 -0.412247 76 0 153
0.340948 0.657286 0.161832 127 0 127
0.104071 0.088280 0.392695 0 0 255
0.466452 -0.512839 0.201465 76 0 153
0.363147 0.657286 -0.170821 127 0 127
0.058942 -0.122034 -0.412247 76 0 153
-0.014712 -0.398304 -0.412247 76 0 153
-0.291811 -0.292128 -0.412247 76 0 153
-0.333942 -0.138808 -0.195222 76 0 153
0.466452 -0.697171 -0.257500 0 127 127
0.377679 0.481398 -0.103254 76 0 153
0.424177 0.003257 0.378120 204 51 127
-0.262148 -0.104444 0.128980 76 0 153
-0.058406 0.420630 -0.412247 76 0 153
-0.195335 -0.602719 -0.122750 153 0 76
-0.279744 0.591286 0.412484 76 0 153
0.466452 0.522788 -0.339270 76 0 153
-0.484279 0.117358 0.370455 0 0 255
-0.030942 -0.104444 -0.258766 76 0 153
0.155906 0.465161 -0.412247 76 0 153
-0.229702 -0.377877 0.392695 0 0 255
0.398674 -0.565521 0.378120 0 0 255
0.466452 -0.325429 -0.071093 76 0 153
0.312363 0.680196 -0.238330 127 0 127
0.309904 0.575625 0.343756 76 0 153
-0.150415 0.608604 0.344452 76 0 153
-0.237229 0.059777 -0.395065 76 0 153
0.234818 -0.068264 0.384104 0 0 255
-0.388155 0.415723 0.412484 76 0 153
-0.312460 0.658045 -0.102999 0 127 127
0.443543 -0.531054 -0.139256 76 0 153
-0.449915 -0.437622 -0.016520 153 76 0
-0.449915 -0.449600 0.207724 153 76 0
-0.420022 -0.602719 -0.375845 153 0 76
0.466452 -0.228543 0.168066 76 0 153
-0.296299 -0.403614 -0.395065 76 0 153
0.301069 0.006347 0.392695 0 0 255
-0.449915 0.495875 -0.377356 153 76 0
-0.472825 -0.513346 -0.386821 153 76 0
-0.472825 -0.828987 -0.022214 127 127 0
0.065531 -0.618463 -0.412247 127 0 127
0.359133 -0.602719 0.152471 153 0 76
-0.442238 -0.494370 0.412484 0 0 255
-0.472825 0.608147 0.178680 153 76 0
-0.277054 -0.138808 -0.274517 76 0 153
-0.003595 0.502649 -0.121404 204 51 127
0.232635 0.591296 -0.412247 76 0 153
0.466452 -0.831363 -0.026940 0 127 127
0.443543 0.057260 -0.442124 76 0 153
-0.472825 -0.351231 0.049417 153 76 0
0.466452 -0.533319 0.304774 76 0 153
-0.350305 0.665297 0.405238 76 0 153
-0.382960 -0.046866 -0.412247 76 0 153
-0.472825 0.653591 0.055894 153 76 0
-0.155076 0.256130 -0.395065 76 0 153
0.466452 -0.344626 0.316640 76 0 153
-0.453319 -0.251447 0.378120 0 0 255
0.405779 -0.438502 0.412484 0 0 255
-0.249631 -0.365230 -0.412247 76 0 153
0.466452 -0.012212 -0.379988 76 0 153
-0.423066 0.043467 -0.395065 76 0 153
-0.472825 -0.514011 0.143751 153 76 0
0.288644 0.634035 -0.446611 76 153 0
-0.004580 -0.138808 -0.092068 76 0 153
0.158968 -0.614174 0.396249 0 0 255
0.195184 -0.491171 0.392695 0 0 255
0.079567 0.195209 -0.395065 76 0 153
0.443543 0.390253 0.332584 76 0 153
0.377679 0.536817 0.344859 76 0 153
-0.347662 0.694864 -0.446611 76 153 0
-0.199228 -0.472328 0.384104 0 0 255
-0.449915 0.659743 -0.380877 153 76 0
0.023304 -0.080182 -0.412247 76 0 153
0.391113 0.029306 -0.395065 76 0 153
0.197548 0.631630 0.412484 76 0 153
-0.451851 0.688687 0.378120 0 0 255
-0.249651 -0.138808 0.063574 76 0 153
-0.381615 0.471149 0.252986 153 76 0
-0.420963 0.181056 0.412484 0 0 255
0.213635 -0.582284 -0.412247 76 0 153
-0.379613 -0.491972 0.378120 0 0 255
-0.472825 -0.265532 -0.312614 153 76 0
0.466452 -0.025508 -0.094327 76 0 153
-0.086055 0.646381 0.378120 0 255 0
-0.145248 -0.622875 -0.395065 76 0 153
0.443543 -0.457247 -0.071821 76 0 153
0.377679 0.596556 0.204971 76 0 153
-0.472825 -0.330470 0.004102 153 76 0
-0.449915 -0.292821 0.251558 153 76 0
0.179379 -0.762213 -0.446611 127 0 127
-0.449915 0.234303 0.088244 153 76 0
0.281280 -0.823687 -0.446611 127 0 127
0.194133 -0.367493 0.392695 0 0 255
0.165060 0.471149 0.348810 76 0 153
-0.035595 -0.602719 0.086110 153 0 76
0.466452 -0.462879 0.319234 76 0 153
0.037542 -0.229904 -0.412247 76 0 153
0.466452 0.205166 -0.214293 76 0 153
0.443543 0.458114 -0.333735 76 0 153
0.095761 -0.138808 0.179096 76 0 153
0.220380 0.007893 -0.395065 76 0 153
0.066897 -0.829242 -0.446611 127 0 127
0.443543 -0.561109 -0.365829 76 0 153
0.466452 0.430852 0.108044 76 0 153
0.309951 0.397593 0.405619 76 0 153
-0.078715 -0.138808 0.264154 76 0 153
0.016823 -0.394767 -0.395065 76 0 153
-0.472825 -0.326201 -0.148405 153 76 0
-0.472825 -0.724402 0.087448 127 127 0
0.310469 -0.602719 0.267380 153 0 76
0.377829 -0.104444 -0.233012 76 0 153
0.326876 -0.117604 0.343756 76 0 153
-0.255508 -0.309497 0.384104 0 0 255
-0.449915 0.273229 -0.273549 153 76 0
0.163038 0.279981 0.400756 0 0 255
-0.068113 0.307128 0.378120 0 0 255
-0.163159 -0.086878 0.392695 0 0 255
-0.449915 0.646978 -0.252254 153 76 0
0.443543 -0.431770 0.306589 76 0 153
-0.115700 -0.602719 -0.107459 153 0 76
-0.472825 0.192119 -0.398268 153 76 0
0.310116 -0.104444 -0.193688 76 0 153
0.466452 0.495950 -0.251352 76 0 153
-0.226799 -0.602719 0.311956 153 0 76
0.470699 0.554803 0.343756 204 51 127
0.325664 0.167211 0.392695 0 0 255
0.466452 -0.295495 0.215184 76 0 153
-0.117819 0.348983 0.343756 127 127 0
0.332406 0.535320 -0.395065 76 0 153
0.443543 0.167932 -0.006661 76 0 153
0.335149 0.651021 0.378120 76 0 153
0.156679 0.494058 0.213312 204 51 127
0.343315 0.530364 0.189340 76 0 153
0.466452 -0.191126 -0.189480 76 0 153
-0.258242 -0.780174 -0.446611 127 0 127
-0.362570 0.657286 0.028490 0 127 127
-0.407620 -0.836020 0.234937 76 153 0
0.251860 0.608604 0.345826 76 0 153
-0.357542 0.094417 -0.395065 76 0 153
0.414017 -0.602719 0.105966 76 0 153
-0.449915 0.130460 0.206589 153 76 0
0.443543 0.039802 -0.102164 76 0 153
-0.028562 0.680673 0.378120 0 255 0
-0.083845 -0.104444 -0.140849 76 0 153
0.360787 0.215338 -0.412247 76 0 153
0.443543 -0.483100 -0.025873 76 0 153
0.209275 -0.138808 0.104354 76 0 153
-0.201074 0.494058 0.261677 204 51 127
-0.148016 -0.121705 -0.412247 76 0 153
-0.107414 0.011202 0.384104 0 0 255
-0.431121 -0.859366 -0.446611 127 0 127
-0.449915 0.452264 -0.263393 153 76 0
-0.472825 -0.750811 -0.365979 127 127 0
0.443543 -0.536134 -0.272982 76 0 153
-0.349688 0.501189 -0.213306 153 76 0
0.182829 0.497159 0.378120 76 0 153
-0.468372 0.714559 0.358072 0 0 255
-0.449915 -0.003410 -0.387687 153 76 0
0.245790 -0.104444 -0.374463 76 0 153
-0.053644 0.478721 0.378120 76 0 153
-0.449915 0.254872 -0.107653 153 76 0
0.466452 0.215771 -0.083671 76 0 153
0.331771 -0.575227 0.378120 0 0 255
0.466452 -0.409138 0.202444 76 0 153
0.443543 -0.658169 0.277325 76 0 153
-0.097805 0.601424 -0.228974 153 0 76
-0.389590 -0.659992 0.377039 255 0 0
0.440873 0.093047 0.343756 76 0 153
-0.448982 -0.202012 0.343756 153 76 0
-0.449915 -0.290707 -0.140655 153 76 0
0.259055 0.170912 -0.395065 76 0 153
0.402494 0.232297 0.412484 0 0 255
-0.472825 -0.401342 -0.262004 153 76 0
0.138629 -0.195758 -0.412247 76 0 153
-0.333246 0.710106 0.343756 0 255 0
-0.472825 -0.378655 -0.049748 153 76 0
0.443543 -0.146202 -0.382697 76 0 153
0.466452 -0.596325 0.194131 76 0 153
-0.138812 0.521952 -0.412247 76 0 153
0.377679 0.516082 0.288149 76 0 153
-0.209197 -0.602719 -0.008807 153 0 76
-0.110467 -0.104444 -0.083051 76 0 153
0.157052 -0.138808 0.057299 76 0 153
0.127900 0.694310 0.378120 0 255 0
0.012240 -0.138808 0.040536 76 0 153
-0.472825 0.330725 -0.102368 153 76 0
0.292998 0.289842 0.378120 0 0 255
-0.137707 0.558857 0.343756 76 0 153
-0.006639 -0.138808 -0.129528 76 0 153
0.126458 -0.602719 -0.166298 153 0 76
0.163007 0.645832 0.349806 0 255 0
-0.449915 0.170327 -0.237139 153 76 0
0.466452 0.079652 -0.045132 76 0 153
0.466452 -0.150571 -0.277681 76 0 153
-0.472825 -0.327109 0.176705 153 76 0
0.438935 -0.681016 0.234937 76 153 0
-0.472825 0.527060 0.053907 153 76 0
0.110678 0.502649 0.039987 204 51 127
-0.169057 -0.104444 0.104751 76 0 153
-0.151196 -0.220702 0.392695 0 0 255
0.328564 -0.138808 -0.002483 76 0 153
-0.449915 0.331476 -0.296038 153 76 0
0.472959 0.438413 0.378120 204 51 127
0.183298 -0.104444 -0.148443 76 0 153
-0.087087 0.695526 -0.446611 76 153 0
-0.390464 0.346723 0.410146 0 0 255
-0.402084 -0.649375 -0.446611 127 0 127
-0.029291 -0.602719 -0.241966 153 0 76
0.466452 0.220020 0.191378 76 0 153
0.164100 0.411687 0.378120 127 127 0
-0.293467 0.502649 -0.102151 204 51 127
0.006319 0.146203 -0.395065 76 0 153
0.309310 -0.104444 -0.306546 76 0 153
0.134500 -0.394604 -0.412247 76 0 153
0.346170 0.471149 0.185535 76 0 153
0.466452 -0.267616 -0.276566 76 0 153
-0.472825 0.585613 -0.420531 153 76 0
-0.472825 -0.092867 0.244033 153 76 0
0.403871 -0.549753 -0.412247 76 0 153
-0.002978 -0.104444 -0.389181 76 0 153
0.200964 0.525891 0.343756 76 0 153
-0.472825 0.412317 -0.255774 153 76 0
0.385722 -0.602719 0.087184 153 0 76
-0.404016 -0.138808 -0.284356 76 0 153
0.384678 0.680196 -0.298597 127 0 127
-0.472825 0.694453 0.020514 153 76 0
-0.472825 -0.816943 0.012249 127 127 0
-0.290536 -0.470369 -0.395065 76 0 153
0.367016 -0.138808 -0.158917 76 0 153
0.287606 -0.104444 -0.137621 76 0 153
0.213108 0.494058 -0.117080 204 51 127
0.466452 -0.098501 0.197116 76 0 153
0.076395 -0.138808 0.225430 76 0 153
0.443543 0.648283 -0.009668 76 0 153
0.375277 -0.838205 -0.446611 127 0 127
-0.310537 0.370899 0.378120 127 127 0
-0.281744 0.539011 -0.395065 76 0 153
-0.003850 0.377085 0.343756 127 127 0
-0.472825 -0.618584 -0.001311 153 76 0
0.383112 -0.602719 0.243430 153 0 76
-0.274075 0.348012 0.371250 0 0 255
-0.472825 -0.542311 -0.350562 153 76 0
0.443543 0.352772 -0.056294 76 0 153
-0.384428 0.657286 0.233061 0 127 127
-0.366960 0.564846 0.378120 153 76 0
0.443543 0.264724 0.115977 76 0 153
0.443543 0.486730 -0.146552 76 0 153
-0.373116 -0.104444 0.131840 76 0 153
-0.449915 0.481567 -0.092160 153 76 0
-0.472825 -0.584464 -0.371650 153 76 0
0.252424 0.474141 -0.228974 153 0 76
-0.472825 -0.253081 -0.063166 153 76 0
0.406535 0.443933 -0.412247 76 0 153
0.466452 -0.017018 -0.324189 76 0 153
0.211934 0.380568 0.343756 127 127 0
0.060796 -0.284268 -0.395065 76 0 153
0.443543 0.378181 0.020720 76 0 153
0.443543 -0.177114 -0.357157 76 0 153
-0.449915 -0.532573 0.032505 153 76 0
-0.472825 -0.104489 -0.004112 153 76 0
0.082235 -0.391926 -0.395065 76 0 153
0.443543 0.554587 0.117188 76 0 153
-0.472825 0.685655 -0.146592 153 76 0
-0.449915 -0.442725 0.103914 153 76 0
0.333017 -0.104444 -0.237349 76 0 153
-0.448641 -0.136029 0.378120 0 0 255
-0.449915 0.533486 -0.287098 153 76 0
-0.293115 -0.602719 0.137916 153 0 76
-0.449915 -0.622946 -0.212457 153 76 0
-0.449915 0.214879 0.250706 153 76 0
0.088869 0.134670 -0.412247 76 0 153
0.343315 0.483742 -0.042758 76 0 153
-0.215074 -0.104444 -0.027728 76 0 153
0.466452 0.069594 0.239692 76 0 153
0.169034 0.608604 -0.239460 153 0 76
-0.449915 0.161682 -0.145559 153 76 0
0.443543 -0.410133 -0.330514 76 0 153
-0.472825 -0.299448 0.105448 153 76 0
0.309928 0.657286 0.183297 127 0 127
-0.472825 -0.529050 0.285951 153 76 0
0.443543 -0.099441 0.034154 76 0 153
0.477907 -0.166474 0.356467 204 51 127
-0.449915 -0.165227 -0.336779 153 76 0
0.170747 -0.602719 -0.351755 153 0 76
-0.472825 -0.817770 0.120721 127 127 0
0.330562 -0.602719 -0.166005 153 0 76
0.288749 0.195926 0.384104 0 0 255
-0.472825 0.203796 -0.073088 153 76 0
-0.285750 0.502649 0.191805 204 51 127
-0.449915 0.475340 0.323217 153 76 0
-0.084459 -0.085181 -0.412247 76 0 153
0.280693 -0.041913 -0.412247 76 0 153
0.443543 0.250358 -0.368104 76 0 153
0.439104 -0.801138 -0.446611 0 127 127
0.443543 -0.021983 0.277324 76 0 153
0.053316 -0.264643 0.384104 0 0 255
0.436556 -0.104444 0.136181 76 0 153
0.466452 0.470319 -0.036108 76 0 153
-0.449915 0.065193 -0.140028 153 76 0
0.421400 0.678288 -0.446611 76 153 0
0.162085 -0.104444 0.042332 76 0 153
0.443543 -0.619994 -0.389737 76 0 153
0.343315 0.562215 0.283211 76 0 153
0.199826 -0.138808 0.314116 76 0 153
-0.472825 -0.492156 -0.280770 153 76 0
0.423998 0.284250 0.382088 0 0 255
0.466452 -0.428147 0.084747 76 0 153
-0.452656 -0.324403 0.343756 153 76 0
0.443543 0.310789 -0.109494 76 0 153
-0.449915 -0.368623 0.213199 153 76 0
-0.470546 -0.850864 0.234937 127 127 0
0.443543 0.543178 0.233517 76 0 153
-0.449915 0.581579 0.321520 153 76 0
-0.472825 0.163175 -0.338487 153 76 0
0.074508 0.521352 -0.412247 76 0 153
0.365361 -0.575819 0.378120 0 0 255
-0.174588 0.296882 -0.412247 76 0 153
0.217340 -0.074400 -0.395065 76 0 153
-0.148162 0.494058 -0.082635 204 51 127
0.443543 0.452101 0.311828 76 0 153
0.443543 -0.188993 -0.149434 76 0 153
0.443543 0.030899 -0.347648 76 0 153
0.371623 0.657286 0.242492 127 0 127
0.443543 0.628375 -0.382849 76 0 153
0.331111 0.657286 0.301968 127 0 127
0.466452 0.421589 -0.076114 76 0 153
-0.244076 -0.513946 0.395337 0 0 255
0.121230 0.641205 0.378120 0 255 0
0.466452 -0.205805 -0.283956 76 0 153
0.008019 0.367851 0.401666 0 0 255
-0.395757 0.592618 0.378120 76 0 153
0.433376 0.165340 -0.412247 76 0 153
0.443543 0.226936 -0.237500 76 0 153
0.039651 -0.687532 -0.446611 127 0 127
-0.430486 -0.265390 0.343756 0 0 255
0.466452 -0.622404 0.154129 76 0 153
-0.148138 0.585144 0.412484 76 0 153
-0.088067 -0.602719 -0.046934 153 0 76
-0.472825 0.119823 -0.067844 153 76 0
0.395227 0.394323 -0.412247 76 0 153
-0.173942 0.393831 0.401436 127 127 0
-0.227236 0.502649 0.009252 204 51 127
0.384486 0.680196 0.196394 127 0 127
-0.472825 0.436632 -0.181621 153 76 0
0.443543 0.419249 -0.004765 76 0 153
-0.252543 0.314754 -0.395065 76 0 153
0.186951 0.152284 -0.412247 76 0 153
0.381663 0.680196 0.275547 127 0 127
-0.398089 -0.414082 -0.395065 76 0 153
-0.449915 0.611362 -0.063825 153 76 0
-0.472825 -0.317069 0.242197 153 76 0
0.257480 -0.104444 0.023751 76 0 153
0.259408 -0.358981 0.384104 0 0 255
0.441010 -0.138808 0.310403 76 0 153
0.353649 0.611226 -0.395065 76 0 153
-0.449915 -0.562620 0.210596 153 76 0
-0.472825 -0.091321 -0.328088 153 76 0
0.083267 -0.138808 -0.384378 76 0 153
0.293113 -0.643292 0.343756 255 0 0
0.466452 0.464618 -0.398027 76 0 153
0.299324 0.608604 -0.229566 153 0 76
0.443543 0.479838 -0.206111 76 0 153
0.466452 0.283093 0.097073 76 0 153
-0.449915 -0.278093 0.194209 153 76 0
-0.472825 0.082394 0.143628 153 76 0
0.159030 -0.602719 -0.166323 153 0 76
-0.192273 0.502649 -0.128718 204 51 127
-0.084476 0.647892 0.412484 76 0 153
0.083066 0.392182 -0.395065 76 0 153
-0.472825 0.281422 -0.160462 153 76 0
0.466452 0.613830 -0.278819 76 0 153
-0.358243 -0.138808 0.098500 76 0 153
-0.223694 -0.623959 0.343756 255 0 0
-0.165125 -0.104444 -0.022608 76 0 153
-0.191104 -0.138808 -0.041976 76 0 153
-0.398475 0.340690 -0.412247 76 0 153
-0.326661 0.138023 -0.395065 76 0 153
-0.144764 0.502649 0.331510 204 51 127
-0.320281 0.680196 -0.383883 0 127 127
0.301847 -0.312432 0.384104 0 0 255
0.311590 -0.596992 -0.417748 76 0 153
0.466452 0.286891 0.043472 76 0 153
0.466452 0.234260 -0.259625 76 0 153
-0.472825 0.482844 -0.156855 153 76 0
-0.472825 -0.658030 -0.263904 127 127 0
-0.449915 0.216489 0.321942 153 76 0
0.439892 0.680196 -0.020821 76 0 153
-0.238428 0.502649 -0.060057 204 51 127
0.334370 -0.101511 0.378120 0 0 255
-0.449915 -0.032379 0.112501 153 76 0
0.083275 -0.471098 -0.395065 76 0 153
0.335255 0.506518 0.412484 76 0 153
0.477907 0.497305 0.352498 204 51 127
0.103579 0.500916 0.378120 76 0 153
0.102043 -0.137522 -0.412247 76 0 153
0.424437 -0.104444 -0.084908 76 0 153
0.201334 0.427288 -0.412247 76 0 153
-0.075183 -0.602719 0.198142 153 0 76
0.466452 0.312729 -0.206264 76 0 153
0.443543 -0.614717 -0.243004 76 0 153
-0.449915 -0.178201 0.265286 153 76 0
0.262106 -0.625328 0.378120 255 0 0
-0.048623 0.494058 -0.047314 204 51 127
0.428784 -0.138808 0.168312 76 0 153
-0.207021 -0.412883 0.392695 0 0 255
-0.449915 -0.574586 -0.049712 153 76 0
-0.115645 -0.104444 -0.230206 76 0 153
-0.146529 -0.138808 0.215988 76 0 153
0.123558 0.168284 0.384104 0 0 255
0.443543 0.298397 -0.152535 76 0 153
0.361756 0.657286 -0.019349 127 0 127
-0.418362 -0.602719 0.231780 153 0 76
0.309423 0.502649 -0.170811 204 51 127
0.308022 0.657286 0.249964 127 0 127
0.443543 0.037582 0.124671 76 0 153
0.157928 0.552095 -0.228974 153 0 76
-0.472825 0.500512 0.297193 153 76 0
-0.005953 -0.511020 -0.412247 76 0 153
0.338992 -0.518857 -0.412247 76 0 153
-0.472825 -0.216236 0.247442 153 76 0
0.013728 0.016643 0.384104 0 0 255
-0.472825 -0.463422 -0.376806 153 76 0
-0.044275 0.466196 -0.412247 76 0 153
0.379770 -0.104444 0.094632 76 0 153
-0.024473 -0.602719 -0.309632 153 0 76
-0.234534 -0.088728 -0.395065 76 0 153
0.466452 0.118095 -0.224031 76 0 153
-0.441252 0.657286 -0.105726 0 127 127
0.427235 0.680196 0.235743 127 0 127
-0.037218 -0.591264 0.373875 0 0 255
0.237235 0.422188 -0.412247 76 0 153
-0.281281 0.494058 0.234325 204 51 127
-0.472825 0.002887 0.213474 153 76 0
0.148150 0.387929 0.343756 127 127 0
-0.399636 -0.138808 0.042327 76 0 153
-0.406748 -0.463343 -0.395065 76 0 153
0.283911 -0.756963 -0.446611 127 0 127
0.101349 -0.602719 -0.109110 153 0 76
0.466452 -0.451121 -0.032219 76 0 153
-0.159901 -0.370818 0.384104 0 0 255
0.028397 0.649933 -0.412247 76 153 0
0.172835 0.502911 -0.412247 76 0 153
-0.472825 0.520170 -0.124733 153 76 0
0.283234 -0.628058 -0.446611 127 0 127
-0.440876 -0.104444 0.184908 76 0 153
-0.209770 -0.313853 -0.395065 76 0 153
0.060965 -0.104444 0.248114 76 0 153
-0.037644 -0.306019 -0.412247 76 0 153
-0.215128 0.501863 -0.263338 153 0 76
-0.446157 0.020201 0.407472 0 0 255
-0.349688 0.595814 0.054174 153 76 0
0.006216 0.450114 -0.412247 76 0 153
-0.120153 -0.487558 0.384104 0 0 255
0.019191 -0.602719 -0.361933 153 0 76
-0.353435 -0.136515 -0.395065 76 0 153
-0.472825 0.680520 -0.288762 153 76 0
-0.437029 -0.694384 -0.446611 127 0 127
0.266755 -0.602719 -0.077121 153 0 76
0.466452 -0.173985 0.059027 76 0 153
0.376544 0.348012 0.369695 127 127 0
-0.472825 -0.592433 -0.414639 153 76 0
-0.270266 0.277164 0.400001 0 0 255
0.466452 0.403968 0.147064 76 0 153
0.377679 0.498881 -0.152455 76 0 153
0.376640 0.407545 0.408891 76 0 153
-0.205418 0.046798 -0.395065 76 0 153
0.466452 0.322431 0.147891 76 0 153
0.443543 -0.077714 0.001551 76 0 153
-0.294816 0.444842 -0.395065 76 0 153
0.098742 0.262027 -0.412247 76 0 153
0.404795 0.501461 0.378120 204 51 127
-0.021607 0.153517 0.384104 0 0 255
0.377621 -0.104444 0.154908 76 0 153
-0.416628 0.204178 -0.412247 76 0 153
0.443543 -0.609882 0.246782 76 0 153
-0.150906 -0.446847 -0.395065 76 0 153
-0.251289 -0.138808 -0.030122 76 0 153
-0.039728 -0.104444 0.285873 76 0 153
0.239905 0.714559 0.375986 0 255 0
0.052439 -0.138808 -0.010875 76 0 153
0.064943 0.502649 -0.134220 204 51 127
0.373290 0.566297 -0.395065 76 0 153
-0.431320 0.459136 0.378120 76 0 153
0.316406 -0.654127 -0.446611 127 0 127
0.081357 -0.602719 0.275938 153 0 76
-0.228365 -0.220627 -0.395065 76 0 153
0.047362 0.289070 0.378120 0 0 255
0.443543 0.314941 0.282967 76 0 153
0.118135 0.466997 -0.412247 76 0 153
-0.472825 -0.205729 -0.131909 153 76 0
-0.449915 -0.657752 0.045907 153 76 0
0.377529 -0.015330 -0.412247 76 0 153
0.376179 0.342188 -0.395065 76 0 153
-0.449915 0.602643 0.115143 153 76 0
0.431784 0.668741 0.398299 204 51 127
0.443543 -0.583650 -0.282405 76 0 153
0.466452 0.260021 -0.194055 76 0 153
0.033500 -0.602719 0.273293 153 0 76
0.443543 0.182928 0.097013 76 0 153
-0.449915 0.050535 0.251712 153 76 0
-0.449571 0.065151 0.378120 0 0 255
-0.449915 -0.215781 0.301360 153 76 0
0.349517 -0.825095 0.234937 76 153 0
0.030114 -0.138808 0.142305 76 0 153
0.004328 0.494058 0.308610 204 51 127
-0.132530 -0.602719 0.160532 153 0 76
0.253774 0.331307 0.412484 0 0 255
0.466452 0.373802 -0.107424 76 0 153
0.148114 0.363550 0.405393 0 0 255
-0.472825 -0.403874 -0.095908 153 76 0
0.311419 0.494058 0.275851 204 51 127
0.142859 0.559245 0.378120 76 0 153
-0.114471 0.432281 -0.395065 76 0 153
-0.100658 -0.602719 -0.167832 153 0 76
0.443543 -0.262131 -0.314014 76 0 153
-0.472825 0.169543 0.148521 153 76 0
0.466452 0.687221 0.205447 76 0 153
-0.449915 0.009608 -0.440902 153 76 0
-0.229252 0.494058 0.314337 204 51 127
0.413938 0.070120 -0.395065 76 0 153
-0.482941 -0.278225 0.378120 0 0 255
-0.349688 0.511666 -0.119073 153 76 0
-0.449915 -0.206334 0.166250 153 76 0
0.000939 -0.596992 -0.421712 127 0 127
-0.225658 -0.602719 0.250278 153 0 76
0.466452 -0.132842 0.013546 76 0 153
-0.349688 0.587549 -0.138997 153 76 0
0.240516 0.494058 0.268257 204 51 127
-0.292099 0.502649 -0.064628 204 51 127
-0.283540 0.555435 0.412484 76 0 153
-0.472825 -0.396068 0.212437 153 76 0
0.155197 0.502649 0.253971 204 51 127
-0.451522 0.236575 0.378120 0 0 255
-0.273723 -0.104444 0.199650 76 0 153
0.305552 -0.104444 -0.083296 76 0 153
-0.449915 0.021330 -0.155672 153 76 0
-0.012868 -0.359804 -0.395065 76 0 153
-0.384051 0.487705 0.096089 153 76 0
-0.448647 0.525196 -0.395065 76 0 153
0.197251 -0.104444 -0.330907 76 0 153
-0.472825 -0.785065 -0.300751 127 127 0
-0.265148 0.660259 -0.412247 76 153 0
0.086122 -0.298971 -0.412247 76 0 153
0.052317 -0.138808 -0.126447 76 0 153
-0.389849 0.062709 0.408287 0 0 255
0.466452 -0.261216 -0.242981 76 0 153
-0.005227 -0.104444 0.174908 76 0 153
0.414597 0.680196 -0.158858 127 0 127
-0.472825 0.592620 -0.085675 153 76 0
-0.387709 -0.237922 0.378120 0 0 255
0.379078 0.549786 0.412484 76 0 153
-0.129884 -0.602719 -0.279635 153 0 76
0.219268 0.416740 0.346015 127 127 0
-0.074826 0.177907 -0.412247 76 0 153
-0.441629 0.637422 -0.412247 76 0 153
0.059900 0.502649 0.185562 204 51 127
-0.184479 -0.104444 0.143804 76 0 153
-0.331872 0.694262 -0.412247 76 153 0
0.466452 -0.554753 -0.240237 76 0 153
-0.378307 -0.138808 -0.120789 76 0 153
0.365457 0.680196 -0.357872 127 0 127
-0.217014 0.359572 -0.412247 76 0 153
0.339739 0.680196 -0.054088 127 0 127
0.046413 0.696863 0.378120 0 255 0
0.409179 -0.508583 0.344603 204 51 127
0.341479 -0.446486 -0.412247 76 0 153
0.182228 0.619730 0.378120 76 0 153
0.191114 -0.602719 -0.377794 153 0 76
0.466360 -0.293343 0.343756 204 51 127
0.466452 0.097910 -0.071525 76 0 153
0.229788 0.320380 0.378120 0 0 255
-0.449915 -0.630425 -0.121704 153 76 0
0.433819 -0.269970 -0.412247 76 0 153
-0.472825 0.270321 0.040070 153 76 0
0.105092 0.339630 -0.412247 76 0 153
0.275897 -0.633743 0.234937 76 153 0
0.153478 0.606694 0.412484 76 0 153
0.466452 -0.864695 -0.233054 0 127 127
-0.192274 0.329750 0.412484 0 0 255
-0.348212 -0.526270 -0.395065 76 0 153
-0.146498 -0.104444 -0.372608 76 0 153
0.091854 0.024536 -0.395065 76 0 153
0.466452 0.588398 0.189394 76 0 153
-0.106038 0.502649 -0.027958 204 51 127
0.466452 -0.861562 0.202314 0 127 127
0.053071 0.502119 -0.263338 153 0 76
-0.228179 -0.104444 -0.263997 76 0 153
-0.329006 0.547141 0.378120 76 0 153
0.466452 0.073366 -0.316335 76 0 153
0.443543 0.080170 -0.138525 76 0 153
-0.088807 0.247841 -0.412247 76 0 153
-0.042943 0.494058 -0.198065 204 51 127
0.252269 0.471149 0.350102 76 0 153
-0.152737 -0.343606 -0.412247 76 0 153
0.443543 -0.522645 0.124548 76 0 153
0.466452 -0.218576 0.247873 76 0 153
-0.407829 -0.444948 0.412484 0 0 255
-0.449915 -0.167210 -0.189928 153 76 0
-0.449915 0.500024 -0.055079 153 76 0
-0.449915 0.640823 -0.189197 153 76 0
-0.267664 0.034886 -0.395065 76 0 153
-0.314721 0.494058 0.283067 204 51 127
0.443543 0.585577 -0.296981 76 0 153
0.443543 -0.646432 0.222846 76 0 153
0.321157 0.314723 -0.412247 76 0 153
0.290309 0.354895 0.378120 127 127 0
0.466452 -0.222793 0.026098 76 0 153
-0.308510 -0.104444 0.055983 76 0 153
-0.449915 0.184074 0.028127 153 76 0
-0.449915 0.693244 -0.113376 153 76 0
0.387927 0.320144 0.412484 0 0 255
-0.014980 -0.602719 -0.074937 153 0 76
0.377679 0.575076 -0.019083 76 0 153
-0.221395 0.345566 0.412484 0 0 255
-0.157907 0.612483 -0.446611 76 153 0
0.155617 -0.415718 0.392695 0 0 255
0.410520 -0.104444 0.279883 76 0 153
-0.277662 -0.284668 0.392695 0 0 255
0.443543 -0.094703 -0.144863 76 0 153
0.378100 -0.602719 -0.256723 153 0 76
-0.472825 -0.125505 -0.432800 153 76 0
-0.258599 0.577104 -0.415483 76 0 153
0.429781 -0.472667 -0.395065 76 0 153
-0.449915 0.315188 0.286282 153 76 0
-0.198227 -0.138808 0.314375 76 0 153
0.443543 -0.537500 -0.423450 76 0 153
-0.449915 0.248985 0.159673 153 76 0
-0.384051 0.552418 -0.092682 153 76 0
0.248132 -0.104444 -0.285242 76 0 153
-0.326391 0.133674 0.392695 0 0 255
-0.434423 0.016419 0.378120 0 0 255
0.058526 -0.634716 0.378120 255 0 0
-0.484279 -0.498857 0.364738 0 0 255
-0.449915 -0.627674 -0.331504 153 76 0
0.443543 0.589707 -0.004791 76 0 153
0.337991 0.711557 -0.412247 76 153 0
-0.472825 0.383278 -0.268803 153 76 0
0.157124 -0.602719 -0.256796 153 0 76
-0.049244 0.213928 0.384104 0 0 255
0.466452 -0.494537 0.085786 76 0 153
0.005940 -0.188715 -0.395065 76 0 153
-0.472825 -0.227655 0.084024 153 76 0
-0.094500 -0.249395 -0.412247 76 0 153
0.394164 -0.602719 -0.344922 153 0 76
-0.449915 0.633099 0.159035 153 76 0
-0.325457 -0.602719 -0.291204 153 0 76
0.141055 0.288432 0.378120 0 0 255
0.466452 -0.551062 0.113531 76 0 153
0.343315 0.567332 -0.093565 76 0 153
-0.449915 0.642602 0.206627 0 127 127
0.443543 -0.049518 0.251305 76 0 153
0.327273 -0.603046 0.406540 0 0 255
0.110886 0.494058 0.173270 204 51 127
-0.382387 -0.104444 0.199646 76 0 153
-0.127999 -0.602719 0.106410 153 0 76
-0.472825 0.202483 -0.280114 153 76 0
-0.472825 0.574620 0.224057 153 76 0
0.343567 0.226435 0.405675 0 0 255
0.466452 -0.670244 0.141860 76 0 153
-0.472825 0.466796 0.037145 153 76 0
0.319240 -0.404001 -0.412247 76 0 153
0.018451 -0.104444 0.130162 76 0 153
0.443543 -0.426936 -0.282533 76 0 153
-0.298534 0.494058 0.341437 204 51 127
0.466452 0.644857 0.222698 76 0 153
-0.005846 0.502649 0.178310 204 51 127
-0.472825 0.360380 0.006196 153 76 0
-0.028456 0.714559 -0.421537 76 153 0
-0.426611 -0.104444 0.059086 76 0 153
-0.449915 0.358947 0.291317 153 76 0
0.145941 -0.104444 -0.046530 76 0 153
0.443543 -0.302883 -0.123023 76 0 153
-0.364071 -0.602719 -0.017436 153 0 76
0.401565 0.657286 -0.092672 127 0 127
-0.449915 0.466634 -0.210051 153 76 0
-0.051774 -0.405361 0.392695 0 0 255
-0.279023 0.603016 -0.263338 153 0 76
-0.061913 0.608604 -0.262631 153 0 76
0.443543 0.191075 -0.165707 76 0 153
-0.472825 0.536421 -0.319544 153 76 0
0.044458 -0.621336 0.343756 255 0 0
-0.289224 -0.184071 -0.395065 76 0 153
-0.441117 0.319879 0.378120 0 0 255
0.466452 -0.669547 -0.166716 76 0 153
0.350936 -0.602719 -0.032118 153 0 76
0.466452 -0.357661 -0.072336 76 0 153
0.466452 0.511382 0.032608 76 0 153
-0.343531 -0.555276 -0.412247 76 0 153
0.267539 0.539063 -0.228974 153 0 76
0.224564 -0.602719 -0.247960 153 0 76
-0.472825 0.405869 -0.091578 153 76 0
-0.472825 -0.281278 -0.199865 153 76 0
0.466452 -0.536559 -0.343770 76 0 153
0.443543 0.079462 0.098663 76 0 153
-0.472825 -0.772319 0.028975 127 127 0
-0.462885 -0.604757 0.378120 0 0 255
-0.229833 0.004596 -0.395065 76 0 153
0.450765 -0.455638 0.378120 204 51 127
0.443543 0.221264 0.299031 76 0 153
-0.117700 0.642034 0.412484 76 0 153
-0.170898 0.365776 0.378120 0 0 255
-0.038057 0.396395 0.388637 76 0 153
-0.275313 -0.358287 -0.395065 76 0 153
-0.397908 -0.138808 -0.349991 76 0 153
0.215366 -0.390985 0.392695 0 0 255
0.343315 0.534672 0.220978 76 0 153
-0.449915 0.360493 -0.405332 153 76 0
-0.021178 -0.019114 0.384104 0 0 255
0.425710 -0.104444 -0.311473 76 0 153
-0.484279 -0.208139 0.346859 0 0 255
-0.449915 -0.423605 -0.305171 153 76 0
-0.061931 -0.709330 0.234937 76 153 0
0.466452 0.670536 -0.352402 76 0 153
0.365543 -0.053684 -0.412247 76 0 153
0.382206 0.166369 -0.412247 76 0 153
0.466452 -0.002915 0.260759 76 0 153
0.337268 0.043586 0.378120 0 0 255
-0.149391 -0.602719 -0.335070 153 0 76
-0.449915 0.222261 -0.015563 153 76 0
0.443543 0.313858 -0.072760 76 0 153
-0.472825 -0.554784 -0.221038 153 76 0
-0.472825 -0.033742 -0.032368 153 76 0
0.383058 -0.602719 0.041842 153 0 76
-0.349688 0.572164 -0.203093 153 76 0
-0.351427 -0.602719 -0.315724 153 0 76
0.466452 -0.403558 -0.226302 76 0 153
-0.032871 0.665132 0.405435 76 0 153
-0.319988 -0.249133 0.392695 0 0 255
0.001133 -0.619513 -0.446611 127 0 127
-0.472825 -0.446205 -0.076193 153 76 0
0.443543 0.338513 0.163229 76 0 153
-0.472825 0.657927 0.142538 153 76 0
0.288741 -0.596992 -0.444537 127 0 127
0.353046 -0.602719 0.229215 153 0 76
0.381827 -0.138808 -0.217842 76 0 153
-0.083035 -0.104444 0.169226 76 0 153
-0.023945 0.557853 -0.412247 76 0 153
-0.464293 -0.433975 0.401655 0 0 255
-0.032073 0.648637 -0.395065 76 0 153
-0.472825 0.112122 0.025811 153 76 0
0.443543 -0.430615 0.038672 76 0 153
-0.197352 0.522935 0.412484 76 0 153
-0.153820 -0.602166 0.378120 0 0 255
-0.047849 0.360998 -0.395065 76 0 153
-0.449915 0.436793 -0.378289 153 76 0
0.466452 0.549079 -0.234289 76 0 153
0.098763 -0.328494 0.384104 0 0 255
0.409179 -0.213490 0.352044 204 51 127
-0.449915 0.070959 -0.237006 153 76 0
0.119572 -0.620000 -0.446611 127 0 127
-0.472825 0.122319 -0.102320 153 76 0
-0.066295 -0.104444 0.258171 76 0 153
-0.472825 0.112347 -0.241531 153 76 0
-0.449915 0.635972 0.030397 153 76 0
-0.472825 -0.079864 0.084309 153 76 0
-0.472825 -0.041301 -0.432320 153 76 0
0.466452 -0.772779 -0.184831 0 127 127
0.443543 -0.108440 -0.227748 76 0 153
0.443543 -0.344919 -0.262432 76 0 153
0.443543 0.357360 -0.319577 76 0 153
-0.184010 -0.602719 -0.367524 153 0 76
0.190441 0.687922 0.378120 0 255 0
0.466452 0.477848 -0.005351 76 0 153
0.234108 -0.678456 0.234937 76 153 0
-0.449915 -0.123622 -0.171013 153 76 0
0.424299 0.466365 0.407262 76 0 153
-0.405396 -0.104444 -0.040061 76 0 153
0.046262 0.500492 -0.228974 153 0 76
-0.034248 -0.602719 -0.129241 153 0 76
-0.396059 0.657286 -0.066305 0 127 127
0.369194 0.680196 0.077348 127 0 127
-0.131660 0.502649 -0.199501 204 51 127
-0.237597 -0.013368 0.384104 0 0 255
-0.472825 0.558490 -0.136293 153 76 0
-0.449915 -0.209111 0.023888 153 76 0
-0.254868 0.494058 0.291467 204 51 127
-0.133023 -0.104444 -0.291806 76 0 153
0.126619 0.403362 0.378120 76 0 153
-0.120834 0.520647 0.412484 76 0 153
0.205851 -0.783279 0.234937 76 153 0
0.443543 -0.331091 -0.233566 76 0 153
-0.232392 -0.104444 -0.338671 76 0 153
-0.026509 -0.602719 0.317037 153 0 76
-0.159756 0.573970 -0.412247 76 153 0
-0.449915 0.408412 0.164170 153 76 0
-0.336554 0.680196 0.188821 0 127 127
0.068799 -0.484695 0.392695 0 0 255
0.064908 -0.602719 -0.177685 153 0 76
0.443543 -0.467768 0.162939 76 0 153
0.409179 0.480942 0.353201 204 51 127
-0.014277 -0.138808 0.316920 76 0 153
-0.136305 -0.052977 -0.412247 76 0 153
0.117912 -0.545473 -0.412247 76 0 153
-0.170211 -0.757463 -0.446611 127 0 127
-0.302540 -0.602719 0.183389 153 0 76
-0.331077 0.279888 -0.412247 76 0 153
-0.472825 0.273777 0.278076 153 76 0
0.117671 -0.104444 0.215514 76 0 153
-0.384051 0.496592 0.360477 153 76 0
0.333695 0.680196 0.058883 127 0 127
-0.449915 -0.071547 -0.228054 153 76 0
0.211970 0.357224 -0.412247 76 0 153
0.054049 0.640474 0.412484 76 0 153
0.343315 0.474209 0.036318 76 0 153
-0.155661 0.712103 -0.446611 76 153 0
0.443543 -0.265349 -0.084774 76 0 153
-0.088532 0.360437 0.378120 127 127 0
0.200846 -0.104444 0.235230 76 0 153
0.466452 0.505992 0.298647 76 0 153
-0.472825 -0.251070 -0.009247 153 76 0
0.292938 -0.104444 -0.015730 76 0 153
0.165483 -0.620959 -0.412247 76 0 153
-0.176141 -0.104444 -0.242263 76 0 153
-0.472825 -0.421800 0.040805 153 76 0
-0.449915 0.402820 0.275246 153 76 0
-0.472825 0.002751 0.270547 153 76 0
-0.442623 0.680196 -0.170840 153 76 0
0.239908 0.518967 0.412484 153 0 76
-0.472825 0.233414 0.109689 153 76 0
-0.118721 -0.138808 0.031274 76 0 153
-0.091338 -0.083388 0.392695 0 0 255
0.443543 0.340186 -0.147866 76 0 153
0.320615 -0.138808 -0.249041 76 0 153
0.342001 -0.464147 0.403747 0 0 255
0.269658 0.068025 0.384104 0 0 255
0.443543 -0.401162 -0.360577 76 0 153
-0.359100 -0.674762 0.234937 76 153 0
-0.165987 0.583877 -0.228974 153 0 76
0.377679 0.575281 0.121564 76 0 153
0.329423 0.409413 0.343756 127 127 0
0.362675 -0.138808 0.173023 76 0 153
0.165761 -0.519182 0.378120 0 0 255
0.135131 -0.830781 0.234937 76 153 0
0.443543 0.114848 -0.288878 76 0 153
0.310855 -0.034747 -0.395065 76 0 153
0.466452 0.102377 0.045312 76 0 153
0.083231 0.473068 -0.228974 153 0 76
-0.049839 0.580379 0.343756 76 0 153
0.131149 0.328779 0.412484 0 0 255
-0.366537 0.680196 0.307204 0 127 127
-0.386984 -0.717759 0.234937 76 153 0
-0.472825 -0.106667 0.324101 153 76 0
-0.472825 -0.606664 -0.157563 153 76 0
-0.472825 0.064376 0.322590 153 76 0
0.074094 -0.138808 -0.170772 76 0 153
0.445353 0.470851 0.378120 204 51 127
-0.472825 0.548417 0.090298 153 76 0
-0.459152 0.086642 0.405648 0 0 255
-0.472825 -0.130301 -0.027800 153 76 0
0.336959 0.657286 0.002122 127 0 127
-0.449915 0.269417 0.343753 0 0 255
-0.472825 -0.758338 0.126695 127 127 0
-0.009059 -0.138808 0.081530 76 0 153
0.443543 0.213076 -0.114101 76 0 153
0.443543 0.144646 0.014249 76 0 153
0.363958 0.498331 -0.412247 76 0 153
-0.433670 -0.138808 -0.340966 153 76 0
0.466452 -0.457898 0.098706 76 0 153
-0.196987 0.569788 0.343756 76 0 153
-0.058172 -0.481838 0.384104 0 0 255
-0.449915 0.278342 0.059804 153 76 0
-0.371923 0.254962 0.378120 0 0 255
-0.472825 0.323068 -0.031320 153 76 0
-0.472825 -0.818935 0.076166 127 127 0
-0.430997 -0.663694 -0.446611 127 0 127
0.443543 -0.232626 -0.031290 76 0 153
-0.449915 0.599157 0.036807 153 76 0
-0.472825 -0.168631 -0.281315 153 76 0
-0.165375 -0.138808 -0.286613 76 0 153
-0.449915 -0.626049 -0.032201 153 76 0
-0.113318 -0.602719 0.293314 153 0 76
0.443543 -0.590716 -0.415361 76 0 153
-0.472825 0.598346 0.070337 153 76 0
0.443543 -0.657160 0.177423 76 0 153
0.466452 -0.602530 -0.032410 76 0 153
-0.360680 0.680196 -0.055750 0 127 127
-0.472825 0.039073 0.177810 153 76 0
0.298861 -0.238430 0.392695 0 0 255
0.466452 -0.591392 -0.142289 76 0 153
0.303007 0.437819 0.412484 76 0 153
-0.349688 0.494002 -0.086441 204 51 127
0.192212 0.502649 -0.222932 204 51 127
0.466452 0.642570 -0.139021 76 0 153
-0.408377 0.690888 0.378120 0 0 255
0.047141 -0.147688 0.384104 0 0 255
0.447985 0.337943 0.378120 204 51 127
-0.173534 -0.152811 0.392695 0 0 255
-0.050425 0.502649 -0.001181 204 51 127
0.466452 -0.221067 0.124628 76 0 153
0.443543 -0.225354 -0.078513 76 0 153
0.313688 0.088153 0.392695 0 0 255
-0.223005 0.317001 -0.412247 76 0 153
0.466452 -0.441727 -0.311350 76 0 153
0.119966 -0.253834 -0.412247 76 0 153
0.344523 0.608604 -0.164287 76 0 153
0.466452 -0.743949 -0.203543 0 127 127
0.158273 -0.251981 0.384104 0 0 255
0.184965 0.494058 -0.050602 204 51 127
0.466452 -0.000340 -0.056755 76 0 153
0.466452 0.549038 0.307721 76 0 153
-0.231468 -0.602719 0.113260 153 0 76
-0.472825 0.425508 0.056995 153 76 0
-0.472825 -0.076305 -0.040165 153 76 0
0.466452 -0.374777 0.028508 76 0 153
-0.472825 0.065144 0.022975 153 76 0
-0.396722 0.348012 0.354579 127 127 0
0.180181 -0.863986 -0.446611 127 0 127
-0.349688 0.476799 -0.029145 153 76 0
-0.396523 0.524290 0.378120 153 76 0
-0.118054 -0.602719 0.050201 153 0 76
-0.224398 0.244368 0.392695 0 0 255
-0.299662 0.502649 0.054743 204 51 127
0.440002 -0.752638 -0.446611 0 127 127
-0.472825 -0.233137 -0.425927 153 76 0
0.235603 -0.617815 -0.395065 76 0 153
-0.231926 -0.284602 0.384104 0 0 255
-0.449915 -0.259852 0.279250 153 76 0
-0.472825 -0.128000 -0.366125 153 76 0
0.261697 0.231660 0.392695 0 0 255
0.300412 0.608604 0.356709 76 0 153
0.443543 0.035282 0.050864 76 0 153
0.275464 0.682049 -0.446611 76 153 0
0.398517 0.657286 0.018704 127 0 127
0.443543 0.482747 -0.377311 76 0 153
0.377679 0.492638 0.195100 76 0 153
-0.451716 0.344772 -0.446611 153 76 0
0.055822 0.616747 -0.412247 76 0 153
-0.076677 -0.047385 -0.412247 76 0 153
-0.000513 -0.628105 0.234937 76 153 0
0.443543 0.555390 -0.141601 76 0 153
-0.174747 0.714192 0.343756 0 255 0
-0.449915 0.334180 -0.250923 153 76 0
0.443543 0.330986 0.077021 76 0 153
0.436293 0.657286 0.307099 127 0 127
0.443543 0.476327 -0.242069 76 0 153
0.124891 0.494058 -0.013708 204 51 127
0.116467 -0.602719 0.058755 153 0 76
-0.269239 0.124749 -0.412247 76 0 153
0.443543 -0.338184 -0.360166 76 0 153
0.443543 0.687188 -0.062967 76 0 153
0.261178 -0.561359 -0.412247 76 0 153
0.343315 0.482035 0.088759 76 0 153
0.307602 -0.104444 -0.386697 76 0 153
0.443543 -0.542965 0.171696 76 0 153
-0.017824 -0.540216 0.378120 0 0 255
0.443543 -0.439626 0.185570 76 0 153
-0.472825 0.077498 0.102364 153 76 0
0.466452 -0.671583 -0.416405 0 127 127
0.079820 0.664499 -0.412247 76 0 153
-0.472825 -0.096719 0.157092 153 76 0
0.118248 -0.602719 0.171649 153 0 76
-0.307323 -0.602719 0.230286 153 0 76
-0.346610 -0.602719 -0.253439 153 0 76
-0.472825 0.301820 0.309105 153 76 0
-0.449915 -0.130570 0.062330 76 0 153
0.227569 -0.535423 0.378120 0 0 255
0.169590 0.464630 0.412484 76 0 153
0.315683 0.680196 0.111882 127 0 127
-0.327096 -0.236628 -0.395065 76 0 153
0.403335 -0.659781 0.378120 204 51 127
-0.472825 -0.285699 0.322714 153 76 0
-0.019179 0.421052 0.378120 76 0 153
-0.085630 -0.602719 0.231729 153 0 76
-0.472825 0.455677 -0.127049 153 76 0
0.206152 -0.138808 0.258452 76 0 153
-0.449915 0.577841 -0.118951 153 76 0
-0.121074 0.675454 0.343756 0 255 0
-0.342207 0.657286 -0.293145 0 127 127
-0.073576 0.052045 -0.395065 76 0 153
0.418978 0.192036 0.406866 0 0 255
-0.020120 -0.174980 -0.412247 76 0 153
-0.472825 0.127317 -0.159490 153 76 0
-0.472825 -0.008574 0.049714 153 76 0
0.393211 0.576554 0.378120 76 0 153
0.443543 -0.215882 0.219622 76 0 153
0.103899 0.645832 0.346706 0 255 0
-0.028975 0.263996 -0.412247 76 0 153
-0.352752 0.481403 -0.395065 76 0 153
-0.194405 -0.532288 -0.395065 76 0 153
0.176049 0.494058 -0.007212 204 51 127
0.466452 0.547157 0.030254 76 0 153
-0.183861 0.367540 -0.412247 76 0 153
0.037791 0.240676 -0.395065 76 0 153
-0.393782 -0.796967 -0.446611 127 0 127
0.443543 0.276870 -0.049701 76 0 153
0.466452 0.220817 -0.326470 76 0 153
-0.208385 0.394161 0.401816 76 0 153
0.466452 0.455443 0.071807 76 0 153
-0.058485 0.200526 -0.395065 76 0 153
-0.276183 -0.104444 0.305976 76 0 153
0.167499 0.714559 -0.420298 76 153 0
-0.384419 -0.620672 0.378120 0 0 255
0.443543 -0.521104 0.012298 76 0 153
0.443543 0.520088 -0.222409 76 0 153
-0.472825 0.024400 0.025648 153 76 0
-0.131456 -0.104444 0.227499 76 0 153
0.407415 0.614508 -0.446611 76 153 0
0.310397 0.714559 0.375256 0 255 0
0.152732 0.360992 -0.412247 76 0 153
-0.034470 0.502649 0.164825 204 51 127
0.400971 0.486129 -0.395065 76 0 153
-0.449915 -0.086268 -0.281399 153 76 0
0.443543 0.187011 0.331111 76 0 153
-0.402756 0.544630 0.412484 76 0 153
-0.001974 0.642524 -0.446611 76 153 0
0.466452 0.355261 -0.214870 76 0 153
-0.472825 0.229976 -0.167443 153 76 0
-0.347796 0.362449 0.378120 127 127 0
-0.188747 -0.812484 -0.446611 127 0 127
0.466452 0.524845 -0.262552 76 0 153
0.466452 -0.210774 -0.096740 76 0 153
-0.080884 -0.602719 0.288056 153 0 76
0.377679 0.558695 -0.148129 76 0 153
-0.472825 -0.567408 0.125180 153 76 0
-0.254560 -0.104444 -0.100022 76 0 153
0.343315 0.567631 0.028795 76 0 153
0.466452 0.360418 -0.252154 76 0 153
-0.325374 -0.602719 0.023059 153 0 76
0.382974 -0.476579 0.378120 0 0 255
0.466452 -0.419306 -0.073746 76 0 153
-0.251319 -0.192058 -0.395065 76 0 153
-0.007939 0.489156 -0.263338 153 0 76
0.466452 -0.631669 0.260826 76 0 153
0.128893 0.686594 -0.446611 76 153 0
0.343315 0.557017 -0.239796 153 0 76
0.024724 -0.762600 0.234937 76 153 0
-0.091012 0.487643 0.412484 76 0 153
-0.410107 -0.602719 -0.168434 153 0 76
0.217326 -0.626340 -0.446611 127 0 127
-0.472825 -0.784149 -0.269816 127 127 0
-0.428707 -0.358645 -0.412247 76 0 153
-0.449915 0.103911 -0.359850 153 76 0
0.443543 -0.002752 0.131457 76 0 153
-0.081274 0.468863 -0.412247 76 0 153
-0.394740 0.433140 -0.412247 76 0 153
-0.449915 0.518695 0.025643 153 76 0
-0.191209 0.416619 -0.412247 76 0 153
0.386596 0.668267 -0.412247 76 153 0
-0.339744 0.471149 0.377785 76 0 153
-0.449915 -0.019665 -0.302100 153 76 0
0.466452 0.542236 -0.045837 76 0 153
-0.472825 -0.413342 -0.406964 153 76 0
0.373923 -0.138808 0.293738 76 0 153
-0.417751 -0.475483 0.412484 0 0 255
0.213844 -0.047242 -0.412247 76 0 153
-0.281813 0.651538 0.410584 76 0 153
-0.480666 -0.147014 0.343756 0 0 255
0.200351 -0.344975 -0.395065 76 0 153
0.209987 -0.138808 0.135262 76 0 153
0.466452 0.588318 -0.243299 76 0 153
0.108841 -0.602719 0.245333 153 0 76
0.409824 -0.138808 0.003994 76 0 153
-0.312311 -0.865649 -0.446611 127 0 127
0.323815 -0.498133 -0.395065 76 0 153
-0.449915 0.444670 0.327002 153 76 0
0.092773 -0.104444 0.016954 76 0 153
0.414206 0.115466 0.378120 0 0 255
-0.449915 -0.642813 0.214380 153 76 0
0.363219 0.197278 0.378120 0 0 255
-0.154275 -0.138808 -0.006616 76 0 153
-0.389672 0.680196 -0.022684 0 127 127
-0.057875 0.547345 -0.228974 153 0 76
-0.063849 0.574336 -0.412247 76 153 0
-0.327873 0.498050 0.412484 76 0 153
-0.354289 0.471149 -0.150966 153 76 0
0.427519 0.657286 0.114084 76 0 153
0.466452 -0.636791 -0.337928 76 0 153
-0.472825 0.006864 -0.258073 153 76 0
-0.121835 0.379593 0.343756 127 127 0
0.360570 0.033802 -0.395065 76 0 153
-0.150493 -0.560536 -0.395065 76 0 153
0.027462 0.606029 0.343756 76 0 153
-0.449915 -0.632421 0.294727 153 76 0
-0.117500 -0.138808 0.196336 76 0 153
-0.367269 -0.104444 -0.354066 76 0 153
0.466452 0.327470 -0.056888 76 0 153
-0.210880 0.494058 0.144719 204 51 127
-0.328546 -0.138808 0.196390 76 0 153
-0.175709 -0.659992 0.345486 255 0 0
0.443543 -0.571068 -0.188497 76 0 153
0.443543 0.691697 -0.356167 76 0 153
-0.472825 0.465017 0.101475 153 76 0
0.466452 0.281181 -0.420313 76 0 153
0.443543 -0.255427 0.288350 76 0 153
0.466452 0.522632 -0.193418 76 0 153
-0.025073 0.160952 -0.412247 76 0 153
0.438901 0.569920 -0.395065 76 0 153
0.010374 0.470750 0.378120 76 0 153
0.466452 -0.526195 -0.210002 76 0 153
0.443543 0.621061 -0.075238 76 0 153
-0.472825 0.071022 -0.436443 153 76 0
-0.364886 -0.619268 -0.412247 76 0 153
0.443543 -0.039486 -0.230956 76 0 153
0.466452 -0.549891 0.278794 76 0 153
-0.472825 -0.600152 0.321164 153 76 0
0.466452 0.028317 -0.132096 76 0 153
0.138521 -0.448233 -0.412247 76 0 153
-0.449915 0.164121 -0.027643 153 76 0
-0.176236 0.487387 0.343756 76 0 153
-0.242238 -0.138808 -0.324172 76 0 153
-0.444896 -0.102459 0.378120 0 0 255
0.331941 0.657286 -0.125104 127 0 127
-0.349688 0.491061 0.131967 204 51 127
0.077031 -0.602719 -0.252233 153 0 76
0.466452 -0.249117 -0.185132 76 0 153
0.097381 0.539855 0.457903 153 0 76
-0.264098 0.080900 0.392695 0 0 255
-0.175417 -0.602719 0.318194 153 0 76
0.417817 -0.410966 -0.412247 76 0 153
0.331049 -0.732044 0.234937 76 153 0
-0.449915 -0.504306 -0.059665 153 76 0
0.466452 0.180256 0.264550 76 0 153
0.443543 -0.609813 0.004010 76 0 153
0.303393 0.409726 0.378120 127 127 0
0.109498 0.578635 -0.228974 153 0 76
-0.295341 0.494058 -0.151096 204 51 127
-0.370662 0.233114 -0.395065 76 0 153
-0.449915 0.176769 0.339859 0 0 255
-0.472825 -0.162076 0.193582 153 76 0
0.466452 0.473773 -0.076975 76 0 153
0.335103 0.667185 -0.412247 127 0 127
-0.181834 -0.216503 -0.395065 76 0 153
-0.104317 0.547511 0.343756 76 0 153
-0.384995 -0.451195 0.378120 0 0 255
-0.449915 -0.535232 0.186998 153 76 0
0.315026 0.657286 -0.299807 127 0 127
-0.247472 0.373075 -0.412247 76 0 153
0.466452 -0.862832 -0.111657 0 127 127
-0.170396 -0.841662 0.234937 76 153 0
-0.338005 0.227657 -0.395065 76 0 153
-0.449915 -0.061279 -0.021020 153 76 0
0.205177 0.123525 0.384104 0 0 255
-0.328338 0.657286 0.227041 0 127 127
-0.066782 -0.602719 0.257378 153 0 76
-0.173374 -0.602719 0.096650 153 0 76
-0.472825 -0.013593 0.091578 153 76 0
0.443543 0.429325 -0.292094 76 0 153
0.466452 0.000839 0.342232 204 51 127
-0.084486 -0.138808 -0.113804 76 0 153
0.316320 -0.138808 -0.112005 76 0 153
0.134189 -0.104444 -0.183913 76 0 153
-0.449915 -0.654325 -0.380784 153 76 0
0.244482 0.507159 0.378120 76 0 153
-0.472825 -0.486162 -0.351025 153 76 0
-0.379710 0.608604 0.082802 153 76 0
-0.205144 0.108981 -0.412247 76 0 153
-0.449915 -0.320426 0.097391 153 76 0
-0.443310 -0.383070 0.378120 0 0 255
0.443543 0.472459 0.128067 76 0 153
0.350431 -0.056918 0.407472 0 0 255
-0.420969 -0.138808 -0.131389 76 0 153
-0.472825 0.300059 -0.251455 153 76 0
0.325638 0.363716 0.405230 0 0 255
0.443543 0.161608 0.057430 76 0 153
0.379451 0.277555 0.378120 0 0 255
-0.359729 -0.210825 0.392695 0 0 255
0.466452 0.378355 -0.295903 76 0 153
0.345065 0.663333 0.343756 0 255 0
-0.472825 0.625773 -0.377108 153 76 0
-0.175383 -0.138808 0.270137 76 0 153
-0.469976 0.656060 0.378120 0 0 255
0.141811 -0.285630 -0.412247 76 0 153
-0.101512 -0.779011 -0.446611 127 0 127
-0.006633 0.494058 -0.049641 204 51 127
-0.472825 0.537009 -0.072360 153 76 0
-0.378864 0.680196 0.086502 0 127 127
-0.472825 -0.753107 -0.013716 127 127 0
0.443543 -0.453400 0.237858 76 0 153
0.443543 -0.196067 0.051772 76 0 153
0.289663 -0.233251 -0.412247 76 0 153
-0.449915 -0.525466 -0.136427 153 76 0
0.210696 0.561198 0.412484 76 0 153
-0.010474 -0.269645 0.392695 0 0 255
0.443543 0.015054 0.001366 76 0 153
-0.449915 -0.134873 0.146830 76 0 153
-0.415171 0.172736 0.378120 0 0 255
-0.124189 0.534299 0.461100 153 0 76
0.443543 0.076391 -0.192427 76 0 153
0.275795 -0.104444 -0.201912 76 0 153
0.443543 0.127959 0.184214 76 0 153
-0.295419 -0.138808 0.301372 76 0 153
0.466452 0.430667 -0.164376 76 0 153
0.443543 -0.654466 -0.291446 76 0 153
0.059813 -0.093282 0.384104 0 0 255
0.466452 0.565662 -0.350142 76 0 153
0.443262 -0.701541 -0.446611 0 127 127
0.419578 -0.195466 0.378120 204 51 127
-0.447693 0.680196 0.070041 153 76 0
0.343315 0.520158 0.122773 76 0 153
-0.052806 -0.013435 -0.395065 76 0 153
0.068542 -0.107021 0.343756 76 0 153
